5.09928,4.77407,0.0117912
5.09855,4.77818,0.0121059
5.09131,4.81926,0.0152073
5.09059,4.82337,0.0155182
5.06162,4.98763,0.0279236
5.0609,4.99174,0.0282288
5.06018,4.99584,0.0285378
5.05583,5.02047,0.0304031
5.05511,5.02458,0.0307083
4.87874,6.02494,0.106253
4.87802,6.02904,0.10656
4.86936,6.07816,0.110271
4.86864,6.08226,0.11058
4.86791,6.08635,0.110889
4.86719,6.09044,0.111202
4.85204,6.1764,0.117687
4.85131,6.18049,0.118
4.85059,6.18459,0.118307
4.84987,6.18868,0.118616
4.84915,6.19277,0.118931
4.84843,6.19687,0.119234
4.35313,6.60784,0.610731
4.35243,6.61185,0.611027
4.35173,6.61586,0.611322
4.35103,6.61987,0.61162
4.35033,6.62387,0.611917
4.34962,6.62788,0.612215
4.34892,6.63189,0.612511
4.34822,6.6359,0.612808
4.34752,6.6399,0.613102
3.82646,6.98386,1.14046
3.82579,6.98778,1.14074
3.82512,6.9917,1.14101
3.82444,6.99562,1.14129
3.82377,6.99953,1.14157
3.82309,7.00345,1.14185
3.82242,7.00737,1.14212
3.82175,7.01129,1.1424
3.81704,7.03872,1.14433
3.81435,7.05439,1.14544
3.81367,7.05831,1.14572
3.81031,7.0779,1.1471
3.45337,7.50939,1.48553
3.45276,7.51326,1.48575
3.45215,7.51714,1.48596
2.84953,8.40514,2.03876
2.84894,8.40893,2.03896
2.84835,8.41272,2.03916
2.84776,8.41651,2.03936
2.84718,8.4203,2.03956
2.73594,9.1364,2.07728
2.73536,9.14019,2.07748
2.73477,9.14398,2.07768
2.73418,9.14777,2.07788
2.73359,9.15155,2.07808
2.733,9.15534,2.07827
2.73242,9.15913,2.07847
2.72006,9.23867,2.08266
2.71182,9.2917,2.08546
2.71123,9.29548,2.08566
2.71065,9.29927,2.08586
2.71006,9.30306,2.08606
2.70535,9.33336,2.08765
2.70476,9.33715,2.08785
2.70182,9.35608,2.08885
2.70123,9.35987,2.08904
2.68653,9.45455,2.09403
2.68594,9.45834,2.09423
2.68535,9.46212,2.09443
2.68476,9.46591,2.09463
2.68417,9.4697,2.09483
2.68358,9.47348,2.09503
2.683,9.47727,2.09523
2.68241,9.48106,2.09543
2.67653,9.51893,2.09743
2.67594,9.52271,2.09762
2.67182,9.54922,2.09902
2.67124,9.55301,2.09922
2.67065,9.5568,2.09942
6.0877,-3.30515,-0.129723
6.08698,-3.30104,-0.129419
6.02373,-2.93938,-0.102665
6.02301,-2.93528,-0.102364
6.02229,-2.93117,-0.102062
6.01726,-2.90241,-0.0999317
6.01654,-2.89831,-0.0996265
6.01583,-2.8942,-0.0993214
6.01511,-2.89009,-0.09902
6.01439,-2.88599,-0.0987186
6.01368,-2.88188,-0.0984154
6.01295,-2.87777,-0.0981102
6.01224,-2.87366,-0.097805
6.01152,-2.86956,-0.0975018
6.0108,-2.86545,-0.0972004
6.00146,-2.81206,-0.0932484
5.9548,-2.54523,-0.0735111
5.95121,-2.52471,-0.0719948
5.95049,-2.52061,-0.0716896
5.94977,-2.5165,-0.0713863
5.94906,-2.5124,-0.0710812
5.94547,-2.49189,-0.0695648
5.94475,-2.48778,-0.0692616
5.93614,-2.43855,-0.0656204
5.93542,-2.43445,-0.0653152
5.93471,-2.43034,-0.0650139
5.92753,-2.38932,-0.0619793
5.92682,-2.38522,-0.0616741
5.9261,-2.38112,-0.0613728
5.92538,-2.37701,-0.0610676
5.92466,-2.37291,-0.0607643
5.92395,-2.36881,-0.060463
5.81714,-1.75811,-0.0152893
5.81643,-1.75401,-0.0149841
5.81428,-1.74173,-0.0140743
5.81356,-1.73763,-0.013773
5.80568,-1.69258,-0.0104389
5.80497,-1.68849,-0.0101357
5.80425,-1.6844,-0.00983429
5.80354,-1.6803,-0.00953102
5.80282,-1.67621,-0.00922585
5.8021,-1.67211,-0.00892448
5.80139,-1.66802,-0.00862122
5.80067,-1.66392,-0.00831795
5.79996,-1.65983,-0.00801659
5.79924,-1.65573,-0.00771332
5.79852,-1.65164,-0.00740814
5.79781,-1.64754,-0.00710678
5.79709,-1.64345,-0.00680161
5.79637,-1.63936,-0.00650024
5.79566,-1.63526,-0.00619888
5.77418,-1.51246,0.00288391
5.77346,-1.50836,0.00318909
5.77275,-1.50427,0.00349236
5.77203,-1.50018,0.00379372
5.77132,-1.49608,0.00409698
5.77061,-1.49199,0.00439453
5.76989,-1.4879,0.00470161
5.76917,-1.48381,0.00500298
5.76846,-1.47971,0.00530624
5.76774,-1.47562,0.00560951
5.76702,-1.47153,0.00591278
5.76631,-1.46744,0.00621414
5.76559,-1.46334,0.00651741
5.76488,-1.45925,0.00681877
5.76416,-1.45516,0.00712395
5.76344,-1.45107,0.00742531
5.76273,-1.44697,0.00772858
5.76201,-1.44288,0.00802994
5.7613,-1.43879,0.00833321
5.75414,-1.39787,0.0113602
5.75343,-1.39378,0.0116634
4.72934,-0.560029,1.03002
4.23772,-0.527421,1.56173
4.23712,-0.523605,1.56193
3.55511,1.26121,2.09686
3.90074,1.64208,1.67599
3.90014,1.64589,1.6762
5.17838,1.89436,0.25489
5.17768,1.89842,0.25519
5.17697,1.90247,0.255493
4.70678,1.86324,0.772223
4.7061,1.86721,0.772505
4.70542,1.87117,0.772785
5.10455,4.75009,0.00255203
5.10383,4.7542,0.00286293
5.1031,4.75831,0.00317574
5.10238,4.76242,0.00348282
5.10165,4.76653,0.00379372
5.10093,4.77064,0.00410461
5.09079,4.82816,0.00844765
5.06471,4.97603,0.0196209
5.06399,4.98013,0.0199261
5.06327,4.98424,0.020237
5.0553,5.02941,0.0236511
4.89478,5.93985,0.0924072
4.89406,5.94395,0.0927219
4.89334,5.94804,0.0930252
4.89262,5.95214,0.0933342
4.89189,5.95623,0.0936489
4.89117,5.96033,0.0939579
4.88251,6.00948,0.0976696
4.88178,6.01357,0.0979767
4.88106,6.01767,0.0982914
4.88034,6.02176,0.0985947
4.3567,6.59282,0.602444
4.356,6.59683,0.602741
4.35529,6.60084,0.603039
4.3546,6.60485,0.603333
3.82779,6.981,1.13334
3.82173,7.01628,1.13582
3.82106,7.0202,1.1361
3.82038,7.02411,1.13638
3.81971,7.02803,1.13665
3.81904,7.03195,1.13693
3.81837,7.03587,1.13721
3.81366,7.0633,1.13914
3.81298,7.06722,1.13942
3.81231,7.07114,1.13969
3.81163,7.07506,1.13997
3.45522,7.50279,1.47836
3.45461,7.50667,1.47858
2.8624,8.32683,2.02808
2.86182,8.33063,2.02828
2.86123,8.33442,2.02848
2.86064,8.33821,2.02868
2.86005,8.342,2.02888
2.85946,8.34579,2.02908
2.85887,8.34958,2.02928
2.85063,8.40265,2.03207
2.71996,9.24392,2.07638
2.71348,9.28559,2.07857
2.7129,9.28938,2.07877
2.70995,9.30832,2.07977
2.70936,9.3121,2.07997
2.70877,9.31589,2.08017
2.70819,9.31968,2.08037
2.7076,9.32347,2.08057
2.70701,9.32726,2.08077
2.70642,9.33104,2.08097
2.70113,9.36514,2.08277
2.70054,9.36892,2.08297
2.69995,9.37271,2.08316
2.69936,9.3765,2.08336
2.69877,9.38029,2.08356
2.69818,9.38408,2.08376
2.68818,9.44847,2.08715
2.6876,9.45226,2.08735
2.6823,9.48635,2.08915
2.68171,9.49013,2.08935
2.67818,9.51286,2.09055
2.67759,9.51665,2.09074
2.67053,9.5621,2.09314
6.02842,-2.96075,-0.111517
6.0277,-2.95664,-0.11121
6.02698,-2.95254,-0.110909
6.02626,-2.94843,-0.110605
6.02555,-2.94432,-0.1103
6.00327,-2.81697,-0.100876
5.95516,-2.54187,-0.0805264
5.95444,-2.53777,-0.0802231
5.95373,-2.53367,-0.0799179
5.95301,-2.52956,-0.0796165
5.94512,-2.48442,-0.0762806
5.93937,-2.45159,-0.0738487
5.93866,-2.44748,-0.0735474
5.93794,-2.44338,-0.0732422
5.81677,-1.75051,-0.0219803
5.81605,-1.74641,-0.0216789
5.79599,-1.63174,-0.0131931
5.79528,-1.62764,-0.0128918
5.78668,-1.57851,-0.00925446
5.76163,-1.43523,0.00134277
5.76091,-1.43114,0.00164413
5.7602,-1.42704,0.0019474
5.75948,-1.42295,0.00224876
5.75876,-1.41886,0.00255394
5.75805,-1.41477,0.00285721
5.75733,-1.41067,0.00315857
5.75662,-1.40658,0.00346375
5.7559,-1.40249,0.00376511
4.73083,-0.56429,1.02295
4.23908,-0.531574,1.55493
3.55525,1.26494,2.09059
3.55472,1.26868,2.09073
3.90025,1.64977,1.66982
5.17718,1.90665,0.248577
5.17647,1.9107,0.248878
5.17576,1.91476,0.249178
4.70556,1.87525,0.766098
4.70488,1.87921,0.766378
4.7042,1.88318,0.766657
4.70352,1.88715,0.766939
5.09098,4.83295,0.00138092
5.09026,4.83706,0.00169373
5.06708,4.96853,0.0116177
5.06636,4.97263,0.0119305
5.05549,5.03424,0.0165844
4.89711,5.93256,0.0844364
4.89639,5.93665,0.0847511
4.89133,5.96533,0.0869141
4.89061,5.96943,0.0872231
4.88988,5.97352,0.0875378
4.88917,5.97762,0.0878429
4.88555,5.9981,0.0893917
4.88483,6.0022,0.0897007
4.88411,6.0063,0.0900097
4.35816,6.58982,0.595043
3.82912,6.97814,1.1262
3.45646,7.50007,1.4714
2.86468,8.31675,2.02098
2.86409,8.32054,2.02118
2.86351,8.32433,2.02138
2.85879,8.35467,2.02298
2.71985,9.24916,2.0701
2.71514,9.27947,2.07169
2.71456,9.28326,2.07189
2.69808,9.38935,2.07748
2.69749,9.39314,2.07768
2.6969,9.39692,2.07788
2.69631,9.40071,2.07808
2.68925,9.44618,2.08047
2.6816,9.49542,2.08307
2.68101,9.49921,2.08327
2.68042,9.503,2.08347
2.67983,9.50679,2.08367
2.67924,9.51058,2.08387
2.67042,9.5674,2.08686
2.66983,9.57119,2.08706
6.03096,-2.9698,-0.119457
6.03024,-2.96569,-0.119154
6.01227,-2.86296,-0.111553
5.94548,-2.48105,-0.0832939
5.94189,-2.46053,-0.0817738
5.94117,-2.45642,-0.0814724
5.79561,-1.62412,-0.019886
5.7949,-1.62002,-0.0195885
5.79418,-1.61593,-0.0192833
4.73231,-0.568554,1.01587
4.24103,-0.539545,1.54792
4.24044,-0.535728,1.54812
5.11092,-0.479929,0.592907
3.55486,1.27241,2.08445
3.90037,1.65364,1.66344
3.89977,1.65745,1.66364
5.17598,1.91893,0.24226
5.17527,1.92299,0.242559
5.17456,1.92705,0.242861
5.17385,1.93111,0.24316
5.17314,1.93517,0.243462
4.70298,1.89519,0.760532
4.7023,1.89916,0.760813
5.09046,4.84186,-0.00538254
5.08973,4.84597,-0.00506973
5.08901,4.85008,-0.00476074
5.08104,4.89528,-0.00134277
5.08031,4.89939,-0.00103569
5.07959,4.9035,-0.000724792
5.07887,4.90761,-0.000413895
5.07814,4.91172,-0.000101089
5.06945,4.96102,0.00362015
5.06872,4.96513,0.00393105
5.05569,5.03907,0.00951958
5.05496,5.04318,0.00983047
4.89944,5.92526,0.0764656
4.89872,5.92936,0.0767746
4.88932,5.98263,0.0807991
4.8886,5.98673,0.08111
4.88788,5.99082,0.081419
4.88716,5.99492,0.081728
4.35963,6.58682,0.587641
3.83045,6.97529,1.11907
3.4577,7.49735,1.46444
2.86696,8.30666,2.01389
2.86637,8.31045,2.01408
2.86578,8.31425,2.01428
2.85872,8.35975,2.01668
2.85224,8.40147,2.01888
2.71975,9.25441,2.06381
2.71916,9.2582,2.064
2.71857,9.26199,2.06421
2.7174,9.26957,2.0646
2.71681,9.27336,2.0648
2.71622,9.27715,2.065
2.6962,9.40599,2.07179
2.69561,9.40978,2.07199
2.69032,9.44388,2.07379
2.66972,9.57649,2.08077
6.03277,-2.97475,-0.127096
6.00618,-2.82268,-0.115841
5.94584,-2.47768,-0.090313
5.94512,-2.47357,-0.0900078
5.94441,-2.46947,-0.0897064
5.94369,-2.46536,-0.0894032
5.79452,-1.6124,-0.0262833
5.7938,-1.6083,-0.0259819
5.79308,-1.60421,-0.0256767
5.79236,-1.60011,-0.0253735
5.79165,-1.59601,-0.0250702
5.79093,-1.59192,-0.0247688
5.79022,-1.58782,-0.0244656
5.7895,-1.58373,-0.0241642
4.24654,-0.570428,1.5397
4.24595,-0.56661,1.5399
4.24536,-0.562792,1.5401
4.24476,-0.558974,1.5403
4.24417,-0.555156,1.5405
4.24358,-0.551337,1.5407
4.24298,-0.547519,1.5409
4.24239,-0.543701,1.54111
5.11251,-0.484259,0.585606
3.56935,1.17524,2.0743
3.555,1.27615,2.07817
3.89988,1.66133,1.65726
3.89929,1.66514,1.65746
5.17336,1.93935,0.236544
5.17265,1.94341,0.236841
5.17194,1.94746,0.237143
4.70177,1.9072,0.754404
4.34657,1.87763,1.14507
5.0892,4.85488,-0.0118332
5.08848,4.85899,-0.0115204
5.08776,4.8631,-0.0112133
5.08703,4.86721,-0.0109024
5.08631,4.87132,-0.0105915
5.08558,4.87543,-0.0102787
5.08486,4.87954,-0.0099659
5.08413,4.88365,-0.00965881
5.08341,4.88776,-0.00934982
5.08268,4.89187,-0.00903702
5.07833,4.91653,-0.00717163
5.07761,4.92064,-0.00686073
5.07254,4.94941,-0.00468826
5.07181,4.95352,-0.00437927
5.07109,4.95763,-0.00407219
5.05515,5.04802,0.00276184
5.05443,5.05213,0.00306702
5.0537,5.05623,0.00338364
5.05298,5.06034,0.00368881
5.05226,5.06445,0.00399971
5.05153,5.06856,0.00431061
5.0508,5.07267,0.00462341
5.05008,5.07678,0.0049305
5.04935,5.08088,0.00524712
5.04864,5.08499,0.00555229
5.04791,5.0891,0.00586319
5.04718,5.09321,0.00617409
5.03125,5.18357,0.0130005
5.03053,5.18767,0.0133114
5.0298,5.19178,0.0136223
5.02908,5.19589,0.0139275
5.02835,5.19999,0.014246
5.02763,5.2041,0.0145512
5.02691,5.20821,0.0148621
4.90104,5.92206,0.0687981
4.3611,6.58382,0.580229
3.83178,6.97243,1.11193
3.45955,7.49075,1.45725
3.45894,7.49463,1.45747
2.86806,8.30415,2.00718
2.85864,8.36484,2.01038
2.71847,9.26724,2.05791
2.69551,9.41506,2.0657
2.69492,9.41885,2.0659
2.69198,9.43779,2.0669
2.69139,9.44158,2.0671
2.66961,9.5818,2.07449
6.00799,-2.8276,-0.123486
4.2485,-0.578409,1.53269
4.2479,-0.574591,1.53289
5.1141,-0.488591,0.5783
3.55514,1.27988,2.07189
3.8994,1.66902,1.65108
3.89881,1.67284,1.65128
5.17215,1.95165,0.230223
5.17144,1.95571,0.230524
5.17073,1.95977,0.230824
4.70055,1.91922,0.748274
4.69986,1.92319,0.748554
4.34489,1.89336,1.13911
5.07781,4.92546,-0.0139427
5.07708,4.92957,-0.0136299
5.07636,4.93368,-0.0133171
5.07563,4.93779,-0.0130043
5.07491,4.9419,-0.0126972
5.07418,4.94601,-0.0123882
5.04737,5.09805,-0.000896454
5.04665,5.10216,-0.000587463
5.03362,5.17611,0.00499916
5.03289,5.18022,0.00531006
5.02709,5.21307,0.00779533
5.02637,5.21718,0.00810623
5.02565,5.22129,0.00841331
5.02492,5.2254,0.00872803
5.0242,5.2295,0.00903511
4.90337,5.91476,0.0608196
4.90265,5.91886,0.0611248
4.36326,6.5768,0.572523
4.36256,6.58081,0.572819
3.83312,6.96956,1.10479
3.46141,7.48415,1.45007
3.4608,7.48803,1.45028
2.86975,8.29785,2.00028
2.86917,8.30165,2.00048
2.85856,8.36993,2.00408
2.69481,9.42413,2.05961
2.69423,9.42792,2.05981
2.69364,9.43171,2.06001
2.69305,9.4355,2.06021
2.66949,9.58711,2.0682
2.66891,9.5909,2.0684
2.66832,9.59469,2.0686
6.13501,-3.54842,-0.184113
6.13429,-3.5443,-0.183809
6.13357,-3.54019,-0.183506
6.13285,-3.53607,-0.183199
6.03569,-2.98052,-0.14208
6.00981,-2.83251,-0.131126
4.24986,-0.582574,1.52587
3.89893,1.67672,1.64489
3.89833,1.68053,1.6451
3.89774,1.68434,1.64529
3.88885,1.74154,1.64831
3.88826,1.74535,1.64851
3.88767,1.74917,1.64871
3.88708,1.75298,1.64891
3.88649,1.75679,1.64911
3.88589,1.7606,1.64931
5.17095,1.96395,0.2239
5.17024,1.96801,0.224199
5.16953,1.97207,0.224499
5.16882,1.97613,0.2248
4.69865,1.93521,0.742418
4.69796,1.93918,0.742701
4.69728,1.94315,0.742981
5.04684,5.10701,-0.00765991
5.04612,5.11112,-0.00735092
5.03597,5.16864,-0.00300026
5.03525,5.17275,-0.00269318
5.02438,5.23438,0.00196457
5.02366,5.23848,0.00227547
5.02293,5.24259,0.00258636
5.02221,5.2467,0.00289917
4.90571,5.90746,0.0528316
4.90498,5.91156,0.0531464
4.36544,6.56978,0.564812
4.36473,6.57379,0.565107
3.83445,6.9667,1.09765
3.46879,7.44259,1.44093
3.46817,7.44647,1.44115
3.46756,7.45036,1.44136
3.46695,7.45424,1.44158
3.46634,7.45812,1.4418
3.46327,7.47754,1.44288
3.46265,7.48142,1.44309
2.885,8.20427,1.98878
2.88441,8.20807,1.98898
2.88382,8.21186,1.98918
2.88324,8.21566,1.98937
2.88265,8.21945,1.98957
2.87498,8.26878,1.99218
2.87439,8.27258,1.99237
2.8738,8.27637,1.99257
2.87321,8.28016,1.99277
2.87262,8.28396,1.99298
2.87203,8.28775,1.99318
2.87144,8.29155,1.99338
2.87086,8.29534,1.99358
2.85848,8.37502,1.99777
2.85789,8.37882,1.99797
2.85494,8.39779,1.99897
2.85435,8.40158,1.99917
2.66821,9.6,2.06231
2.66761,9.60379,2.06251
2.66703,9.60758,2.06271
2.66644,9.61138,2.0629
2.66585,9.61517,2.0631
2.66526,9.61896,2.0633
2.66467,9.62275,2.0635
2.66408,9.62654,2.0637
2.6635,9.63033,2.0639
2.6629,9.63412,2.0641
2.66232,9.63791,2.0643
2.66173,9.6417,2.0645
2.66114,9.64549,2.0647
2.66055,9.64928,2.0649
2.65996,9.65307,2.0651
2.65937,9.65686,2.0653
6.13757,-3.5576,-0.192083
6.13685,-3.55349,-0.191778
6.13325,-3.53289,-0.190254
6.07853,-3.21999,-0.167091
6.07781,-3.21587,-0.166788
6.07709,-3.21176,-0.166481
6.01162,-2.83743,-0.138769
3.55596,1.28362,2.05918
3.89785,1.68823,1.6389
3.89726,1.69204,1.63911
3.89667,1.69586,1.63931
3.89607,1.69967,1.63951
3.89133,1.73018,1.64112
3.89074,1.73399,1.64132
3.89015,1.73781,1.64152
3.886,1.7645,1.64293
3.88541,1.76832,1.64313
3.88482,1.77213,1.64333
5.16903,1.98032,0.217875
5.16832,1.98438,0.218178
5.16762,1.98844,0.218475
5.1669,1.9925,0.218775
4.69674,1.95121,0.736568
4.69606,1.95518,0.736849
5.0463,5.11597,-0.0144253
5.04558,5.12008,-0.0141144
5.03833,5.16118,-0.0110054
5.03761,5.16529,-0.0106983
5.02239,5.25158,-0.00417519
5.02167,5.25568,-0.00386238
5.02095,5.25979,-0.0035553
4.90731,5.90425,0.0451584
4.36761,6.56276,0.5571
4.36691,6.56677,0.557396
3.83578,6.96384,1.0905
3.47065,7.43597,1.43374
3.47003,7.43986,1.43396
3.46635,7.46316,1.43526
3.46573,7.46704,1.43547
3.46512,7.47093,1.43569
3.46451,7.47481,1.4359
2.88611,8.20174,1.98207
2.88257,8.22452,1.98327
2.88198,8.22831,1.98347
2.88139,8.23211,1.98367
2.87785,8.25488,1.98487
2.87726,8.25867,1.98507
2.87668,8.26247,1.98527
2.87609,8.26626,1.98547
2.85781,8.38391,1.99166
2.85722,8.38771,1.99186
2.85663,8.3915,1.99206
2.85604,8.3953,1.99226
2.65926,9.66219,2.05901
2.65867,9.66598,2.05921
2.65808,9.66977,2.05941
2.65749,9.67356,2.05961
2.6569,9.67735,2.05981
6.13941,-3.56267,-0.199747
6.07748,-3.20852,-0.173529
6.03861,-2.98631,-0.157076
3.89618,1.70356,1.63312
3.89559,1.70737,1.63332
3.895,1.71119,1.63352
3.89441,1.715,1.63372
3.89381,1.71882,1.63392
3.89322,1.72263,1.63412
3.89263,1.72645,1.63433
3.88493,1.77603,1.63694
3.88433,1.77985,1.63714
3.88374,1.78366,1.63734
3.88315,1.78748,1.63754
3.88256,1.79129,1.63774
3.88196,1.7951,1.63795
5.16712,1.99669,0.211845
5.16641,2.00075,0.212149
5.1657,2.00482,0.21245
5.16499,2.00888,0.212751
5.04577,5.12494,-0.0211945
5.04504,5.12905,-0.0208817
5.04432,5.13316,-0.0205688
5.04359,5.13727,-0.0202618
5.04287,5.14138,-0.019949
5.04215,5.14549,-0.01964
5.04142,5.1496,-0.0193329
5.04069,5.15371,-0.0190144
5.03997,5.15782,-0.0187073
5.02113,5.26467,-0.0106297
5.0204,5.26878,-0.0103168
4.98057,5.49471,0.00675774
4.97985,5.49882,0.00706863
4.90892,5.90105,0.0374794
4.36908,6.55975,0.549677
3.47189,7.43324,1.42677
2.88721,8.19922,1.97535
2.88132,8.23718,1.97735
2.88073,8.24097,1.97755
2.88014,8.24477,1.97775
2.87955,8.24857,1.97795
2.87896,8.25236,1.97815
2.65679,9.68268,2.05351
2.6562,9.68648,2.05371
6.14126,-3.56774,-0.207415
6.07786,-3.20528,-0.180578
3.57327,1.1714,2.042
3.55677,1.28737,2.04646
3.88207,1.79901,1.63155
3.88148,1.80283,1.63175
3.88089,1.80664,1.63195
5.16521,2.01307,0.205816
5.16449,2.01714,0.20612
5.16379,2.0212,0.206421
5.16307,2.02526,0.20672
5.16236,2.02932,0.207022
5.16165,2.03339,0.207319
5.02059,5.27366,-0.0173969
5.01987,5.27777,-0.0170898
5.01914,5.28188,-0.016777
5.01624,5.29832,-0.0155354
5.01552,5.30243,-0.0152225
5.01479,5.30654,-0.0149097
5.01407,5.31065,-0.0146008
5.01335,5.31476,-0.0142937
5.01262,5.31887,-0.0139809
5.01189,5.32298,-0.0136681
5.01117,5.32709,-0.0133591
5.01045,5.3312,-0.0130501
5.00972,5.33531,-0.0127335
5.009,5.33942,-0.0124264
5.00827,5.34352,-0.0121193
5.00755,5.34763,-0.0118027
5.00682,5.35174,-0.0114956
5.0061,5.35585,-0.0111847
5.00537,5.35996,-0.0108738
4.98219,5.49142,-0.000932693
4.98002,5.50374,-1.90735e-06
4.9793,5.50785,0.00030899
4.97857,5.51196,0.000621796
4.97423,5.5366,0.00248337
4.97351,5.54071,0.00279045
4.97278,5.54482,0.00310135
4.97206,5.54892,0.00341225
4.97133,5.55303,0.00372505
4.97061,5.55714,0.00403595
4.95685,5.63516,0.00993347
4.95613,5.63926,0.0102444
4.9554,5.64337,0.0105553
4.95468,5.64747,0.0108624
4.95396,5.65158,0.0111732
4.95323,5.65568,0.0114899
4.95251,5.65979,0.011795
4.95178,5.6639,0.0121059
4.95106,5.668,0.0124168
4.95033,5.67211,0.0127296
4.37054,6.55674,0.542257
3.83777,6.96203,1.07648
3.47313,7.4305,1.41978
2.89481,8.15492,1.96644
2.89422,8.15872,1.96664
2.89363,8.16252,1.96684
2.89304,8.16631,1.96704
2.89245,8.17011,1.96724
2.88891,8.19289,1.96844
2.88832,8.19669,1.96864
2.65608,9.69181,2.04741
2.62369,9.90039,2.0584
2.62309,9.90418,2.05861
2.62251,9.90797,2.05881
2.62192,9.91176,2.059
2.62133,9.91556,2.0592
2.62074,9.91935,2.0594
2.62015,9.92314,2.0596
2.61956,9.92693,2.0598
2.61897,9.93072,2.06
6.07825,-3.20204,-0.187634
4.25353,-0.587783,1.49919
3.88099,1.81055,1.62556
3.8804,1.81437,1.62576
4.69445,1.97937,0.717587
4.69376,1.98334,0.717869
4.33961,1.95253,1.10818
5.16187,2.03759,0.20039
5.16116,2.04165,0.200689
5.01933,5.28677,-0.023859
5.0186,5.29088,-0.0235462
5.01788,5.29499,-0.0232334
5.00556,5.36486,-0.0179501
5.00483,5.36897,-0.017643
4.99614,5.41828,-0.0139122
4.99541,5.42239,-0.0135994
4.99469,5.4265,-0.0132866
4.99396,5.43061,-0.0129795
4.98382,5.48813,-0.00863075
4.97875,5.51689,-0.00645447
4.97803,5.521,-0.00614357
4.9773,5.5251,-0.00583649
4.97658,5.52921,-0.00552559
4.97585,5.53332,-0.00521469
4.97078,5.56207,-0.00303841
4.97006,5.56618,-0.0027256
4.9592,5.62779,0.00193024
4.95848,5.6319,0.00223541
4.95051,5.67706,0.0056572
4.94978,5.68117,0.00596809
4.91142,5.89874,0.0224171
4.37202,6.55373,0.53483
3.83911,6.95917,1.06932
3.47438,7.42777,1.4128
2.89769,8.14099,1.95912
2.89709,8.14479,1.95932
2.89651,8.14859,1.95952
2.89592,8.15238,1.95972
2.89238,8.17517,1.96092
2.89179,8.17897,1.96112
2.8912,8.18276,1.96132
2.89061,8.18656,1.96152
2.89002,8.19036,1.96172
2.65597,9.69714,2.04111
2.65538,9.70094,2.04132
2.65066,9.73128,2.04292
2.65008,9.73507,2.04312
2.64949,9.73887,2.04331
2.6489,9.74266,2.04352
2.64831,9.74646,2.04371
2.64124,9.79197,2.04611
2.64065,9.79577,2.04631
2.64006,9.79956,2.04651
2.63947,9.80335,2.04671
2.63888,9.80715,2.04691
2.63829,9.81094,2.04711
2.6377,9.81473,2.04731
2.63711,9.81852,2.04751
2.63652,9.82232,2.04771
2.63593,9.82611,2.04791
2.63535,9.8299,2.04811
2.63476,9.8337,2.04831
2.63417,9.83749,2.04851
2.63358,9.84128,2.04871
2.61885,9.9361,2.05371
2.61826,9.93989,2.05391
2.61767,9.94369,2.05411
2.61708,9.94748,2.05431
6.07864,-3.1988,-0.194685
6.04264,-2.99293,-0.179438
3.55759,1.29111,2.03373
3.88051,1.81828,1.61937
3.87992,1.82209,1.61957
4.69391,1.98744,0.711164
4.69323,1.99142,0.711445
4.33917,1.96047,1.10177
5.16137,2.04585,0.193754
5.16066,2.04991,0.194054
5.15995,2.05398,0.194359
5.00501,5.37387,-0.0247192
5.00429,5.37798,-0.0244083
5.00356,5.38209,-0.0241013
5.00067,5.39854,-0.0228577
4.99994,5.40265,-0.0225468
4.99921,5.40675,-0.022234
4.99849,5.41086,-0.0219269
4.99776,5.41497,-0.0216084
4.99414,5.43552,-0.0200596
4.97023,5.57112,-0.00980377
4.96951,5.57523,-0.00949287
4.96082,5.62452,-0.00576782
4.94995,5.68613,-0.00110435
4.91303,5.89553,0.0147285
4.37349,6.55071,0.527405
3.84045,6.9563,1.06217
2.89997,8.13085,1.952
2.89938,8.13465,1.9522
2.89879,8.13845,1.9524
2.65526,9.70627,2.03502
2.65467,9.71007,2.03522
2.65408,9.71386,2.03542
2.6535,9.71766,2.03561
2.65291,9.72145,2.03581
2.65232,9.72524,2.03601
2.65173,9.72904,2.03621
2.64819,9.7518,2.03741
2.6476,9.7556,2.03761
2.64289,9.78594,2.03921
2.6423,9.78974,2.03941
2.63346,9.84664,2.04241
2.62521,9.89975,2.04521
6.07903,-3.19556,-0.201746
6.04446,-2.99789,-0.187101
3.55774,1.29486,2.02743
3.55721,1.2986,2.02757
3.88003,1.82601,1.61317
3.87943,1.82982,1.61337
4.69337,1.99552,0.704739
4.69268,1.99949,0.705019
4.33812,1.97232,1.09557
5.16017,2.05818,0.187416
5.15945,2.06225,0.187719
5.00375,5.387,-0.0311832
5.00302,5.39111,-0.0308762
5.00229,5.39522,-0.0305576
4.98635,5.48565,-0.0237255
4.96244,5.62126,-0.0134659
4.95012,5.69109,-0.00818253
4.93347,5.78556,-0.00103569
4.93275,5.78967,-0.000728607
4.93202,5.79377,-0.000415802
4.9313,5.79788,-0.000106812
4.93057,5.80198,0.000205994
4.91681,5.88,0.00610542
4.91609,5.88411,0.00641251
4.91537,5.88821,0.00672913
4.91465,5.89232,0.0070343
4.37496,6.5477,0.519972
3.84178,6.95343,1.05501
2.90285,8.11691,1.94468
2.90226,8.12071,1.94488
2.90167,8.12451,1.94508
2.90108,8.12831,1.94528
2.64749,9.76094,2.03131
2.64395,9.78371,2.03251
2.63334,9.85201,2.03611
2.61743,9.95445,2.04151
6.07942,-3.19232,-0.208803
6.04628,-3.00284,-0.194771
3.57652,1.16758,2.0161
3.55734,1.30235,2.02127
3.87954,1.83374,1.60697
3.87895,1.83756,1.60717
3.87836,1.84137,1.60737
3.87776,1.84519,1.60757
3.87717,1.84901,1.60777
3.87658,1.85283,1.60798
4.69283,2.00359,0.698307
4.69215,2.00757,0.698591
4.69146,2.01154,0.698872
4.69078,2.01551,0.69915
5.15967,2.06646,0.180777
5.15896,2.07052,0.181078
5.15825,2.07459,0.181379
4.99523,5.44125,-0.0345383
4.97058,5.581,-0.0239658
4.96986,5.58511,-0.0236568
4.96406,5.61799,-0.0211697
4.95029,5.69606,-0.0152607
4.94957,5.70017,-0.0149517
4.94884,5.70427,-0.0146389
4.93653,5.77411,-0.00935555
4.93581,5.77822,-0.00904846
4.93509,5.78233,-0.00873566
4.93074,5.80697,-0.00687599
4.93001,5.81108,-0.00655746
4.92277,5.85215,-0.00345421
4.92205,5.85625,-0.0031414
4.92133,5.86036,-0.00283432
4.9206,5.86447,-0.00252151
4.91988,5.86857,-0.00221252
4.91915,5.87268,-0.00189972
4.91843,5.87679,-0.00159073
4.37643,6.54468,0.512539
3.84312,6.95056,1.04785
3.47688,7.42733,1.39227
2.90632,8.09917,1.93715
2.90574,8.10297,1.93735
2.90514,8.10676,1.93755
2.90455,8.11057,1.93775
2.90396,8.11437,1.93795
2.64737,9.76629,2.025
2.63322,9.85737,2.0298
2.62674,9.89912,2.03201
2.61731,9.95983,2.0352
6.16202,-3.65912,-0.250694
6.1613,-3.655,-0.250393
6.07981,-3.18908,-0.215872
6.07909,-3.18495,-0.215565
6.04811,-3.0078,-0.202438
4.25721,-0.592999,1.47247
3.55749,1.3061,2.01497
3.55696,1.30984,2.01511
3.87668,1.85675,1.60157
3.87609,1.86057,1.60177
3.8755,1.86438,1.60197
3.8749,1.8682,1.60218
3.87431,1.87202,1.60238
4.69093,2.01962,0.69244
4.69024,2.0236,0.692719
4.68956,2.02757,0.693003
5.15846,2.0788,0.174438
4.33538,1.99995,1.0834
4.98888,5.48317,-0.038826
4.97004,5.59006,-0.0307407
4.96931,5.59417,-0.0304279
4.96641,5.61061,-0.0291843
4.96568,5.61472,-0.0288715
4.94902,5.70924,-0.0217228
4.94829,5.71335,-0.02141
4.94757,5.71746,-0.0211029
4.94685,5.72157,-0.020792
4.94612,5.72568,-0.0204754
4.9454,5.72979,-0.0201683
4.94467,5.7339,-0.0198555
4.94394,5.738,-0.0195427
4.94322,5.74211,-0.0192375
4.9425,5.74622,-0.0189266
4.94177,5.75033,-0.0186138
4.94105,5.75444,-0.0183067
4.94032,5.75855,-0.0179882
4.9396,5.76266,-0.0176811
4.93888,5.76677,-0.0173721
4.93815,5.77087,-0.0170593
4.93018,5.81606,-0.0136375
4.92946,5.82017,-0.0133305
4.92874,5.82428,-0.0130215
4.92801,5.82839,-0.0127087
4.92656,5.8366,-0.0120888
4.92583,5.84071,-0.0117741
4.92511,5.84482,-0.011467
4.92439,5.84893,-0.0111542
4.3779,6.54167,0.5051
3.84513,6.94376,1.04041
3.84445,6.94769,1.04069
2.90803,8.09281,1.93022
2.90744,8.09662,1.93042
2.64725,9.77164,2.0187
6.16171,-3.65184,-0.257469
6.07948,-3.18171,-0.22263
6.07876,-3.17759,-0.222328
6.04993,-3.01276,-0.210114
3.5571,1.31359,2.00881
3.87442,1.87595,1.59597
3.87383,1.87977,1.59617
3.87323,1.88358,1.59638
5.15868,2.08301,0.16749
5.15796,2.08708,0.167795
4.68765,2.04361,0.68713
4.68697,2.04758,0.687412
4.99631,5.44697,-0.0490284
4.99124,5.47576,-0.0468502
4.99051,5.47987,-0.0465374
4.96948,5.59912,-0.0375137
4.96876,5.60323,-0.0372066
4.96804,5.60734,-0.0368938
4.92818,5.83338,-0.0197926
4.37938,6.53865,0.497662
3.84714,6.93696,1.03296
3.84646,6.94089,1.03324
3.47876,7.42574,1.37849
2.90973,8.08646,1.92329
2.90914,8.09026,1.92349
2.64713,9.777,2.01239
2.64596,9.78459,2.01279
2.63357,9.86432,2.01699
2.62826,9.89848,2.01879
2.61765,9.96681,2.02239
6.165,-3.66519,-0.26577
6.16212,-3.64868,-0.264553
6.08925,-3.23205,-0.233673
6.07915,-3.17434,-0.229393
6.07843,-3.17022,-0.229092
6.05897,-3.05893,-0.220842
6.05825,-3.05481,-0.220537
6.05752,-3.05069,-0.22023
6.05176,-3.01773,-0.217791
4.25934,-0.597523,1.45899
3.55724,1.31734,2.0025
3.55671,1.32109,2.00265
3.87334,1.88751,1.58997
3.87275,1.89133,1.59017
3.87215,1.89515,1.59037
3.87156,1.89897,1.59057
3.87097,1.90279,1.59077
3.87037,1.90661,1.59097
3.86978,1.91043,1.59118
5.15818,2.09129,0.160847
5.15747,2.09536,0.161148
4.68711,2.05169,0.680695
4.68643,2.05567,0.680973
4.68575,2.05965,0.681259
4.99649,5.4519,-0.0561199
4.99577,5.45601,-0.0558071
4.99504,5.46012,-0.0554943
4.99432,5.46424,-0.0551872
4.99359,5.46835,-0.0548744
4.99286,5.47246,-0.0545616
4.38156,6.53161,0.48992
4.38085,6.53563,0.490217
3.84848,6.93409,1.02579
3.48063,7.41911,1.37128
3.48001,7.423,1.3715
2.91084,8.08391,1.91656
2.64702,9.78235,2.00607
2.63345,9.86969,2.01068
2.62932,9.89627,2.01208
2.61753,9.9722,2.01608
6.09108,-3.23706,-0.241356
6.07882,-3.16697,-0.23616
6.0781,-3.16284,-0.235857
6.06152,-3.06803,-0.228827
6.06079,-3.06391,-0.228521
6.05791,-3.04742,-0.227303
6.05359,-3.02269,-0.22547
3.57976,1.16375,1.99016
3.55685,1.32484,1.99634
3.86989,1.91436,1.58477
3.86929,1.91818,1.58497
3.8687,1.922,1.58517
3.8681,1.92582,1.58537
3.86751,1.92964,1.58558
5.15768,2.09958,0.154194
5.15697,2.10364,0.154499
4.68589,2.06376,0.67454
4.68521,2.06774,0.67482
4.68452,2.07172,0.6751
4.68384,2.07569,0.675381
4.38303,6.52858,0.482473
3.84982,6.93121,1.01862
3.4831,7.40858,1.36384
3.48249,7.41248,1.36406
3.48187,7.41637,1.36427
2.91195,8.08135,1.90982
2.63333,9.87506,2.00436
2.63097,9.89025,2.00517
2.63038,9.89405,2.00537
6.09291,-3.24207,-0.249043
6.07849,-3.15959,-0.242928
6.06334,-3.07301,-0.236509
6.0583,-3.04415,-0.234373
6.05613,-3.03178,-0.233452
6.05541,-3.02766,-0.233147
4.26148,-0.60205,1.44551
3.55699,1.3286,1.99003
3.86762,1.93358,1.57916
3.86703,1.9374,1.57936
3.86643,1.94122,1.57957
5.15718,2.10786,0.147543
5.15647,2.11193,0.147846
5.15576,2.116,0.148148
5.15505,2.12007,0.148451
4.33238,2.03961,1.05814
4.68398,2.07981,0.668659
4.6833,2.08379,0.668941
4.68262,2.08777,0.669224
4.68193,2.09174,0.669502
4.68125,2.09572,0.669786
5.10952,2.38036,0.167744
5.10881,2.38443,0.168045
5.1081,2.38849,0.168344
5.10739,2.39256,0.168646
5.10668,2.39662,0.168951
5.10597,2.40069,0.169252
5.10526,2.40475,0.169552
4.38451,6.52556,0.475023
3.85183,6.9244,1.01116
3.85115,6.92834,1.01144
3.49296,7.35135,1.35381
3.49235,7.35524,1.35402
3.49173,7.35913,1.35424
3.49112,7.36302,1.35445
3.4905,7.36692,1.35467
3.48989,7.37081,1.35489
3.48927,7.3747,1.3551
3.4862,7.39416,1.35619
3.48558,7.39806,1.35641
3.48497,7.40195,1.35662
3.48435,7.40584,1.35684
2.91366,8.07499,1.90288
2.91307,8.0788,1.90308
2.63321,9.88044,1.99805
2.63262,9.88424,1.99825
2.63203,9.88803,1.99845
2.61787,9.97919,2.00325
2.58307,10.2033,2.01506
2.58248,10.2071,2.01526
2.58189,10.2109,2.01546
2.5813,10.2147,2.01566
2.58071,10.2184,2.01587
6.09475,-3.24709,-0.256733
6.07888,-3.15634,-0.250008
6.06662,-3.08623,-0.244808
6.0659,-3.08211,-0.244501
6.06517,-3.07798,-0.244198
6.05868,-3.04087,-0.241444
6.05796,-3.03675,-0.24114
3.55714,1.33236,1.98371
3.86654,1.94516,1.57315
3.86594,1.94898,1.57335
3.86535,1.95281,1.57355
5.15526,2.12429,0.141495
5.15455,2.12836,0.141794
5.15384,2.13243,0.142096
5.15313,2.1365,0.142399
4.3307,2.0554,1.05214
4.33008,2.05931,1.05236
4.68139,2.09984,0.663063
4.68071,2.10382,0.663343
4.68002,2.1078,0.663626
5.11115,2.3765,0.160191
5.10546,2.40903,0.162603
5.10475,2.4131,0.162905
5.10404,2.41716,0.163206
4.3895,6.50242,0.466084
4.3888,6.50644,0.466379
4.38809,6.51047,0.466679
4.38739,6.51449,0.466974
4.38669,6.51852,0.467274
4.38598,6.52254,0.467571
3.85452,6.91366,1.00343
3.85385,6.91759,1.00371
3.85317,6.92152,1.00398
3.49483,7.3447,1.34658
3.49421,7.34859,1.3468
3.48929,7.37974,1.34853
3.48868,7.38363,1.34875
3.48806,7.38752,1.34896
3.48745,7.39142,1.34918
2.91595,8.06483,1.89574
2.91536,8.06863,1.89594
2.91477,8.07244,1.89614
2.61775,9.98459,1.99694
2.58589,10.1897,2.00775
2.5853,10.1935,2.00795
2.58471,10.1973,2.00815
2.58412,10.2011,2.00835
2.58058,10.2239,2.00955
2.57999,10.2277,2.00975
2.53811,10.4973,2.02396
2.53752,10.5011,2.02416
6.67318,-4.03272,-0.804127
6.09659,-3.2521,-0.264429
6.07927,-3.15309,-0.257086
6.07206,-3.11184,-0.254026
6.07133,-3.10771,-0.253721
6.07061,-3.10359,-0.253412
6.06989,-3.09946,-0.253111
6.06917,-3.09534,-0.2528
6.06845,-3.09121,-0.252499
3.73263,0.103262,1.93009
3.7321,0.107008,1.93023
3.73156,0.110753,1.93038
3.73103,0.114499,1.93052
3.7305,0.118245,1.93067
3.55728,1.33611,1.9774
3.86546,1.95675,1.56714
3.86486,1.96057,1.56734
3.86427,1.96439,1.56754
3.86367,1.96822,1.56774
5.15334,2.14073,0.135441
5.15263,2.1448,0.135742
5.15192,2.14887,0.136044
4.68016,2.11193,0.656902
4.67948,2.11591,0.657181
4.32717,2.08294,1.0468
4.32655,2.08686,1.04702
5.10424,2.42144,0.156254
5.10353,2.42551,0.156553
5.10282,2.42957,0.156858
5.10211,2.43364,0.157162
5.1014,2.43771,0.157463
4.39168,6.49537,0.458326
4.39098,6.49939,0.458628
3.85789,6.89897,0.995413
3.85721,6.90291,0.995691
3.85654,6.90684,0.995968
3.85586,6.91078,0.996246
3.49608,7.34194,1.33957
2.91884,8.05085,1.88839
2.91825,8.05466,1.8886
2.91766,8.05846,1.8888
2.91707,8.06227,1.889
2.61763,9.98998,1.99062
2.5952,10.1344,1.99823
2.59461,10.1382,1.99843
2.59402,10.142,1.99863
2.58812,10.1799,2.00063
2.58753,10.1837,2.00083
2.58694,10.1875,2.00103
2.57986,10.2331,2.00344
2.57927,10.2369,2.00363
2.57868,10.2407,2.00384
2.57809,10.2445,2.00404
2.5775,10.2483,2.00424
2.57691,10.2521,2.00444
2.57632,10.2559,2.00464
2.57573,10.2597,2.00484
2.56511,10.3281,2.00844
2.56452,10.3319,2.00864
2.56393,10.3357,2.00884
2.56334,10.3395,2.00904
2.56275,10.3433,2.00924
2.56216,10.3471,2.00945
2.53915,10.4952,2.01725
2.53738,10.5066,2.01785
6.67592,-4.04222,-0.812424
6.67517,-4.038,-0.812101
6.09843,-3.25712,-0.272125
6.07966,-3.14983,-0.264166
6.07461,-3.12095,-0.262028
6.07389,-3.11682,-0.261721
4.74863,-0.57883,0.891733
5.12934,-0.498084,0.465298
3.58302,1.15991,1.96417
3.86378,1.97216,1.56133
3.86319,1.97599,1.56153
3.86259,1.97981,1.56173
5.15213,2.1531,0.129084
5.15142,2.15717,0.129383
5.15071,2.16124,0.129684
4.67962,2.12004,0.650455
4.67894,2.12402,0.650736
4.32672,2.09092,1.04037
4.32611,2.09484,1.04058
4.32549,2.09875,1.0408
5.1016,2.44199,0.150509
5.10089,2.44606,0.15081
5.10018,2.45012,0.151112
5.09947,2.45419,0.151413
4.39316,6.49234,0.450869
3.85991,6.89216,0.987947
3.85923,6.89609,0.98823
3.49795,7.33528,1.33234
3.49733,7.33918,1.33256
2.92055,8.04449,1.88145
2.91995,8.04829,1.88165
2.61751,9.99538,1.9843
2.61042,10.041,1.9867
2.60983,10.0448,1.9869
2.60924,10.0486,1.9871
2.60865,10.0524,1.9873
2.60806,10.0562,1.9875
2.60747,10.06,1.9877
2.60688,10.0638,1.9879
2.60629,10.0676,1.9881
2.59685,10.1284,1.9913
2.59626,10.1322,1.9915
2.59389,10.1474,1.99231
2.59331,10.1512,1.99251
2.59271,10.155,1.99271
2.59212,10.1588,1.99291
2.59154,10.1626,1.99311
2.59035,10.1702,1.99351
2.58977,10.174,1.99371
2.58917,10.1778,1.99391
2.5756,10.2652,1.99852
2.56675,10.3222,2.00152
2.56616,10.326,2.00172
2.56203,10.3525,2.00313
2.56143,10.3563,2.00333
2.56084,10.3601,2.00353
2.56026,10.3639,2.00373
2.55966,10.3677,2.00393
2.55907,10.3715,2.00413
2.55849,10.3753,2.00433
2.55789,10.3791,2.00453
2.5573,10.3829,2.00473
2.55671,10.3867,2.00493
2.55612,10.3905,2.00513
2.55553,10.3943,2.00533
2.55494,10.3981,2.00553
2.55435,10.4019,2.00573
2.53724,10.5121,2.01154
6.67866,-4.05174,-0.820719
6.67792,-4.04751,-0.8204
6.08005,-3.14657,-0.271254
6.07644,-3.12594,-0.26972
3.73458,0.0990835,1.91701
3.73138,0.121567,1.91787
3.5581,1.33988,1.96461
3.8627,1.98376,1.55531
3.8621,1.98758,1.55551
3.86151,1.9914,1.55571
5.15092,2.16547,0.122723
5.15021,2.16954,0.123026
4.67908,2.12815,0.644005
4.6784,2.13213,0.644285
4.67771,2.13611,0.644569
4.32566,2.10282,1.03415
4.32504,2.10673,1.03437
4.32442,2.11065,1.03459
5.09967,2.45848,0.144457
3.86125,6.88927,0.980762
3.4992,7.33252,1.32533
2.92343,8.0305,1.8741
2.92284,8.03431,1.8743
2.92225,8.03812,1.8745
2.92166,8.04192,1.8747
2.61738,10.0008,1.97797
2.61207,10.035,1.97978
2.61148,10.0388,1.97998
2.60616,10.073,1.98178
2.59849,10.1224,1.98438
2.5979,10.1262,1.98458
2.59141,10.168,1.98679
2.57547,10.2706,1.9922
2.5678,10.32,1.9948
2.55422,10.4074,1.99941
2.55363,10.4112,1.99961
6.68066,-4.05703,-0.828699
6.12738,-3.41169,-0.298246
6.12666,-3.40756,-0.297939
6.12594,-3.40343,-0.297634
6.12522,-3.3993,-0.297327
6.11655,-3.34974,-0.293652
6.11582,-3.34561,-0.293344
6.1151,-3.34148,-0.293037
6.11438,-3.33735,-0.29273
6.11366,-3.33323,-0.292429
5.13186,-0.502779,0.450872
3.73582,0.0951192,1.91039
3.58491,1.15612,1.9511
3.55824,1.34365,1.95829
3.86161,1.99536,1.54929
3.86102,1.99918,1.54949
3.86043,2.00301,1.54969
5.15042,2.17378,0.11606
5.14971,2.17785,0.116364
5.149,2.18192,0.116665
4.67785,2.14024,0.637836
4.67717,2.14422,0.638117
4.67649,2.1482,0.638399
4.3246,2.11472,1.02793
4.32398,2.11864,1.02814
4.32336,2.12255,1.02837
4.32274,2.12647,1.02859
4.63411,2.39491,0.655849
4.63343,2.39888,0.656132
4.63275,2.40286,0.656412
4.63206,2.40684,0.656694
4.63138,2.41082,0.656977
4.6307,2.41479,0.657257
4.63001,2.41877,0.657539
4.62933,2.42275,0.657822
4.39541,6.4903,0.436241
3.86259,6.88638,0.97357
3.50045,7.32976,1.31831
2.92692,8.01271,1.86654
2.92632,8.01651,1.86674
2.92573,8.02032,1.86694
2.92514,8.02413,1.86714
2.92455,8.02794,1.86734
2.61726,10.0062,1.97165
2.61667,10.01,1.97185
2.61372,10.029,1.97285
2.61313,10.0328,1.97305
2.60604,10.0784,1.97545
2.59954,10.1202,1.97766
2.57534,10.2761,1.98587
2.57475,10.2799,1.98607
2.56944,10.3141,1.98788
2.56885,10.3179,1.98808
2.5535,10.4167,1.99329
2.55291,10.4205,1.99349
6.68266,-4.06232,-0.836683
6.13067,-3.42501,-0.306568
6.12995,-3.42088,-0.306261
6.12923,-3.41675,-0.305956
6.12562,-3.39609,-0.304424
6.11984,-3.36304,-0.301971
6.11911,-3.35891,-0.301666
6.11839,-3.35478,-0.301361
6.08155,-3.14418,-0.285732
6.07939,-3.1318,-0.284815
4.75188,-0.583823,0.870779
3.86053,2.00696,1.54327
3.85994,2.01079,1.54347
3.85934,2.01461,1.54367
5.14921,2.18616,0.109697
5.1485,2.19023,0.110001
5.14779,2.1943,0.1103
4.67663,2.15234,0.631664
4.67594,2.15632,0.631947
4.67526,2.1603,0.632225
4.32292,2.13054,1.02192
4.3223,2.13446,1.02214
4.32168,2.13838,1.02236
4.64381,2.34338,0.64518
4.64313,2.34736,0.645462
4.64245,2.35134,0.645742
4.64176,2.35532,0.646025
4.64108,2.3593,0.646307
4.6404,2.36328,0.646587
4.63971,2.36726,0.64687
4.63903,2.37124,0.647152
4.63834,2.37522,0.647432
4.63766,2.37919,0.647715
4.63698,2.38317,0.647995
4.6363,2.38715,0.648273
4.63561,2.39113,0.648558
4.62946,2.42694,0.651093
4.62878,2.43092,0.651371
4.62809,2.4349,0.651653
4.62741,2.43887,0.651936
4.62673,2.44285,0.652216
4.62604,2.44683,0.652496
4.62536,2.45081,0.652779
4.62468,2.45479,0.653059
4.62399,2.45876,0.653341
4.62331,2.46274,0.653624
3.86393,6.88349,0.966379
2.92921,8.00252,1.85939
2.92862,8.00633,1.85959
2.92803,8.01014,1.85979
2.61655,10.0154,1.96552
2.61596,10.0192,1.96572
2.61537,10.023,1.96592
2.61478,10.0268,1.96612
2.60592,10.0838,1.96913
2.60178,10.1104,1.97053
2.60119,10.1142,1.97073
2.6006,10.118,1.97093
2.57462,10.2853,1.97975
2.57403,10.2891,1.97995
2.57048,10.3119,1.98115
2.55277,10.426,1.98717
2.55218,10.4298,1.98737
2.55159,10.4336,1.98756
6.12601,-3.39288,-0.311522
6.12313,-3.37635,-0.310297
6.1224,-3.37222,-0.30999
6.12168,-3.36809,-0.309683
6.08122,-3.1368,-0.292521
5.13437,-0.507477,0.436441
3.73777,0.0909357,1.89729
3.55906,1.34742,1.94549
3.85945,2.01857,1.53724
3.85885,2.02239,1.53745
5.148,2.19855,0.103331
5.14729,2.20262,0.103632
4.6754,2.16444,0.625492
4.67472,2.16843,0.625772
4.67403,2.17241,0.626055
4.67335,2.17639,0.626335
4.32185,2.14245,1.0157
4.32123,2.14637,1.01592
4.64941,2.31572,0.636196
4.64873,2.3197,0.636475
4.64805,2.32368,0.636757
4.64736,2.32766,0.637039
4.64668,2.33164,0.637323
4.646,2.33562,0.637604
4.64531,2.3396,0.637884
4.29214,2.33049,1.02617
4.29152,2.33441,1.02639
4.2909,2.33833,1.02661
4.29028,2.34225,1.02682
4.28966,2.34616,1.02704
4.28904,2.35008,1.02726
4.28842,2.354,1.02748
4.28781,2.35791,1.0277
4.28718,2.36183,1.02792
4.28657,2.36575,1.02814
4.28595,2.36967,1.02835
4.28533,2.37358,1.02857
4.28471,2.3775,1.02879
4.28409,2.38142,1.02901
4.28347,2.38533,1.02923
4.28285,2.38925,1.02944
4.28223,2.39317,1.02966
4.28161,2.39708,1.02988
4.28099,2.401,1.0301
4.28038,2.40492,1.03032
4.27975,2.40883,1.03053
4.62344,2.46694,0.646894
4.62276,2.47092,0.647173
4.62207,2.4749,0.647455
4.62139,2.47887,0.647738
4.62071,2.48285,0.648018
4.62002,2.48683,0.6483
5.07537,2.61378,0.13414
5.07466,2.61785,0.134441
5.07394,2.62192,0.134745
5.07323,2.62599,0.135048
5.07252,2.63006,0.135347
5.07181,2.63413,0.135651
5.0711,2.63819,0.13595
5.07039,2.64226,0.136253
3.50234,7.32814,1.30448
2.93093,7.99614,1.85243
2.93033,7.99995,1.85263
2.60579,10.0893,1.9628
2.6052,10.0931,1.963
2.60461,10.0969,1.9632
2.60402,10.1007,1.9634
2.60343,10.1045,1.9636
2.60284,10.1083,1.9638
2.5739,10.2946,1.97362
2.57331,10.2984,1.97382
2.57272,10.3022,1.97402
2.57212,10.306,1.97423
2.57154,10.3098,1.97442
2.55145,10.4391,1.98124
2.55087,10.4429,1.98144
6.12497,-3.3814,-0.318008
5.13597,-0.511831,0.429077
3.73901,0.0869678,1.89067
3.58749,1.1523,1.93153
3.85896,2.02635,1.53101
3.85836,2.03018,1.53122
3.85777,2.03401,1.53142
3.85717,2.03783,1.53162
3.85658,2.04166,1.53182
3.85599,2.04549,1.53202
5.1475,2.20686,0.0966606
4.67349,2.18053,0.619598
4.67281,2.18452,0.619879
4.67212,2.1885,0.620161
4.32079,2.15437,1.00947
4.32017,2.15829,1.00969
4.65297,2.29998,0.628052
4.65229,2.30396,0.628332
4.6516,2.30794,0.628613
4.65092,2.31193,0.628895
4.30036,2.28367,1.01667
4.29974,2.28759,1.01689
4.29912,2.29151,1.01711
4.2985,2.29543,1.01733
4.29788,2.29934,1.01755
4.29726,2.30326,1.01776
4.29664,2.30718,1.01798
4.29602,2.3111,1.0182
4.2954,2.31502,1.01842
4.29478,2.31893,1.01864
4.29416,2.32285,1.01886
4.29354,2.32677,1.01908
3.81736,2.29417,1.54514
3.81676,2.29799,1.54534
3.81617,2.30182,1.54554
3.81557,2.30564,1.54574
3.81498,2.30947,1.54594
3.81439,2.31329,1.54614
3.81379,2.31712,1.54635
3.8132,2.32094,1.54655
3.8126,2.32477,1.54675
3.81201,2.3286,1.54695
3.81141,2.33242,1.54716
4.27992,2.41296,1.02387
4.2793,2.41688,1.02409
4.27868,2.4208,1.02431
4.27806,2.42471,1.02453
4.27745,2.42863,1.02475
4.62015,2.49103,0.641569
4.61947,2.49501,0.641851
4.61879,2.49899,0.642132
4.6181,2.50297,0.642416
4.61742,2.50695,0.642698
4.61673,2.51093,0.642977
4.61605,2.51491,0.643259
4.61537,2.51889,0.643539
4.61469,2.52287,0.643822
4.614,2.52684,0.644104
4.61332,2.53082,0.644384
4.61263,2.5348,0.644667
5.0777,2.60589,0.126272
5.07699,2.60996,0.126574
5.07058,2.64659,0.129292
5.06987,2.65066,0.129595
5.06916,2.65473,0.129892
5.06845,2.6588,0.130196
3.86594,6.88165,0.952263
3.50483,7.31757,1.29702
3.50421,7.32147,1.29723
3.5036,7.32537,1.29745
2.93263,7.98975,1.84547
2.93204,7.99356,1.84567
2.55073,10.4483,1.97511
2.55014,10.4521,1.97531
3.74026,0.0829984,1.88404
3.55988,1.3512,1.93269
3.85609,2.04945,1.52559
3.8555,2.05328,1.52579
3.8549,2.0571,1.526
3.85431,2.06093,1.5262
3.85371,2.06476,1.5264
3.85312,2.06858,1.5266
5.14771,2.21111,0.0896835
4.67226,2.19265,0.613419
4.67157,2.19663,0.613705
4.32035,2.16237,1.00303
4.31973,2.16629,1.00324
4.31911,2.17021,1.00346
4.65653,2.28424,0.619902
4.65584,2.28822,0.620184
4.65516,2.2922,0.620464
4.65447,2.29619,0.620749
4.30486,2.26034,1.00848
4.30424,2.26426,1.0087
4.30363,2.26818,1.00892
4.303,2.2721,1.00914
4.30238,2.27602,1.00936
4.30177,2.27994,1.00957
3.8234,2.25991,1.53669
3.8228,2.26374,1.53689
3.82221,2.26757,1.53709
3.82162,2.27139,1.53729
3.82102,2.27522,1.5375
3.82043,2.27905,1.5377
3.81983,2.28287,1.5379
3.81924,2.2867,1.5381
3.81864,2.29052,1.53831
3.81151,2.33644,1.54073
3.81091,2.34026,1.54093
3.81032,2.34409,1.54113
3.80973,2.34792,1.54133
3.80914,2.35174,1.54153
3.80854,2.35557,1.54173
3.80794,2.35939,1.54194
4.27761,2.43276,1.01809
4.27699,2.43668,1.0183
4.61276,2.53901,0.637932
4.61208,2.54299,0.638214
4.6114,2.54697,0.638494
4.61071,2.55095,0.638777
4.61003,2.55493,0.639059
4.60934,2.55891,0.639339
5.06865,2.66312,0.12323
5.06794,2.66719,0.123533
5.06722,2.67126,0.123835
3.86729,6.87876,0.945059
3.50916,7.29531,1.2889
3.50855,7.29921,1.28912
3.50793,7.30311,1.28934
3.50732,7.30701,1.28955
3.5067,7.31091,1.28977
3.50608,7.31481,1.28999
2.93435,7.98337,1.83851
2.93375,7.98718,1.83871
2.55,10.4576,1.96898
4.75601,-0.589179,0.842875
5.13849,-0.516535,0.414627
3.74203,0.0752763,1.87727
3.7415,0.0790276,1.87741
3.58939,1.1485,1.91843
3.85322,2.07255,1.52017
3.85262,2.07638,1.52037
3.85203,2.08021,1.52057
3.85144,2.08404,1.52077
4.67171,2.20078,0.606956
4.67103,2.20476,0.607237
4.67035,2.20875,0.607521
4.66966,2.21273,0.607801
4.31866,2.17821,0.997015
4.31804,2.18213,0.997232
4.31742,2.18605,0.997448
4.3168,2.18997,0.997667
4.66214,2.25654,0.610905
4.66145,2.26053,0.611185
4.66077,2.26451,0.611465
4.66008,2.26849,0.611752
4.6594,2.27248,0.61203
4.65871,2.27646,0.612314
4.65803,2.28044,0.612595
4.30813,2.24485,1.00073
4.30751,2.24877,1.00094
4.30689,2.25269,1.00116
4.30627,2.25661,1.00138
3.83122,2.21417,1.52764
3.83063,2.21799,1.52784
3.83004,2.22182,1.52804
3.82944,2.22565,1.52824
3.82885,2.22948,1.52844
3.82825,2.2333,1.52865
3.82766,2.23713,1.52885
3.82706,2.24096,1.52905
3.82647,2.24478,1.52925
3.82587,2.24861,1.52945
3.82528,2.25244,1.52965
3.82468,2.25626,1.52985
3.80804,2.36342,1.53551
3.80745,2.36724,1.53571
4.27716,2.44081,1.01164
4.27654,2.44473,1.01186
4.60947,2.56313,0.632603
4.60879,2.56711,0.632887
4.6081,2.57109,0.633169
4.60742,2.57507,0.63345
4.60674,2.57905,0.633732
5.06742,2.6756,0.116867
5.06671,2.67967,0.11717
5.03753,2.84652,0.129553
5.03681,2.85059,0.129854
5.0361,2.85466,0.130157
5.03539,2.85872,0.130461
5.03468,2.86279,0.130762
5.03397,2.86686,0.131063
5.03325,2.87093,0.131367
5.03254,2.875,0.131668
5.03183,2.87907,0.131969
5.02187,2.93602,0.136196
5.02116,2.94009,0.136497
5.02044,2.94415,0.136801
3.51165,7.28474,1.28144
3.51104,7.28864,1.28165
3.51042,7.29254,1.28187
2.93665,7.97317,1.83134
2.93605,7.97698,1.83154
2.93546,7.98079,1.83174
2.54987,10.4631,1.96265
3.75555,-0.0149901,1.86733
3.75502,-0.0112383,1.86747
3.75449,-0.00748649,1.86761
3.75395,-0.00373468,1.86776
3.75342,1.71465e-05,1.8679
3.74968,0.0262801,1.86891
3.74915,0.030032,1.86905
3.74862,0.0337839,1.8692
3.74808,0.0375358,1.86934
3.74755,0.0412878,1.86949
3.74701,0.0450397,1.86963
3.74648,0.0487916,1.86977
3.74595,0.0525436,1.86992
3.74541,0.0562955,1.87006
3.74488,0.0600475,1.87021
3.74435,0.0637994,1.87035
3.74381,0.0675514,1.87049
3.74328,0.0713034,1.87064
3.5607,1.35498,1.91987
3.85154,2.08801,1.51434
3.85095,2.09184,1.51454
3.85035,2.09567,1.51474
3.84976,2.0995,1.51494
3.84916,2.10332,1.51515
3.84857,2.10715,1.51535
3.84797,2.11098,1.51555
3.84738,2.11481,1.51575
3.84678,2.11864,1.51595
3.84619,2.12246,1.51616
4.6698,2.21688,0.601057
4.66912,2.22087,0.601337
4.66843,2.22485,0.601622
4.66775,2.22883,0.601904
4.66707,2.23282,0.602182
4.66638,2.2368,0.602465
4.6657,2.24079,0.602747
4.66501,2.24477,0.603031
4.66433,2.24875,0.603312
4.66364,2.25274,0.603596
4.31326,2.21758,0.99231
4.31264,2.2215,0.992527
4.31202,2.22542,0.992744
4.3114,2.22934,0.992962
4.31078,2.23326,0.993181
3.83667,2.18371,1.51939
3.83608,2.18754,1.51959
3.83549,2.19137,1.51979
3.83489,2.1952,1.51999
3.8343,2.19902,1.52019
3.8337,2.20285,1.52039
3.83311,2.20668,1.5206
3.83251,2.21051,1.5208
4.60687,2.58327,0.626989
4.60618,2.58725,0.627272
4.6055,2.59123,0.627554
4.60481,2.59521,0.627836
4.60413,2.59919,0.628119
4.60345,2.60317,0.628399
5.06691,2.684,0.110201
5.06619,2.68807,0.110504
5.04483,2.81019,0.119568
5.04412,2.81426,0.119867
5.04127,2.83053,0.12108
5.04056,2.8346,0.121378
5.03985,2.83867,0.121681
5.03914,2.84274,0.121983
5.03202,2.88344,0.125006
5.03131,2.88751,0.125309
5.02419,2.92819,0.128326
5.02348,2.93226,0.128626
5.02063,2.94854,0.129839
3.8693,6.87692,0.930927
3.51353,7.27806,1.27418
3.51291,7.28197,1.2744
2.93836,7.96678,1.82437
2.93777,7.97059,1.82457
2.54973,10.4686,1.95631
6.13091,-3.39334,-0.348282
6.13019,-3.3892,-0.347977
3.7568,-0.0189801,1.8607
3.7536,0.0035349,1.86156
3.75307,0.00728743,1.8617
3.75253,0.01104,1.86185
3.752,0.0147925,1.86199
3.75146,0.0185451,1.86213
3.75093,0.0222976,1.86228
3.73652,0.12362,1.86616
3.56084,1.35875,1.91353
3.84629,2.12645,1.50972
3.8457,2.13027,1.50992
3.8451,2.1341,1.51012
3.84451,2.13793,1.51032
3.84391,2.14176,1.51052
3.84332,2.14559,1.51073
3.84272,2.14942,1.51093
3.84213,2.15325,1.51113
3.84153,2.15708,1.51133
3.84094,2.1609,1.51153
3.84035,2.16473,1.51173
3.83975,2.16856,1.51194
3.83915,2.17239,1.51214
3.83856,2.17622,1.51234
4.2682,2.50789,1.00158
4.26758,2.51181,1.0018
4.26696,2.51573,1.00202
4.26634,2.51965,1.00223
4.26573,2.52357,1.00245
4.2651,2.52749,1.00267
4.26448,2.53141,1.00289
4.26386,2.53533,1.00311
4.26324,2.53925,1.00333
4.26263,2.54317,1.00354
4.60357,2.60739,0.62166
4.60289,2.61137,0.621943
4.60221,2.61536,0.622225
5.06639,2.69241,0.103529
5.04788,2.79826,0.111385
5.04716,2.80233,0.111689
5.04645,2.8064,0.111992
5.04432,2.81862,0.112896
5.04361,2.82269,0.113199
5.04289,2.82676,0.113503
5.0315,2.89188,0.118336
5.03079,2.89595,0.118639
5.02581,2.92444,0.120754
5.02082,2.95292,0.122869
5.02011,2.95699,0.123173
4.41284,6.42871,0.380915
4.41213,6.43274,0.38122
4.41143,6.43677,0.381517
4.41072,6.44081,0.381815
4.41002,6.44484,0.382116
3.87065,6.87402,0.923717
3.51663,7.26358,1.26649
3.51602,7.26749,1.26671
3.5154,7.27139,1.26693
3.51478,7.27529,1.26715
2.94007,7.96038,1.8174
2.93948,7.96419,1.8176
2.5496,10.4741,1.94998
3.75805,-0.0229715,1.85406
3.7367,0.127161,1.85981
3.73616,0.130915,1.85996
3.73563,0.134668,1.8601
3.73509,0.138422,1.86024
3.73456,0.142175,1.86039
3.73402,0.145929,1.86053
3.73349,0.149682,1.86068
3.73296,0.153436,1.86082
3.73243,0.15719,1.86097
3.73189,0.160943,1.86111
3.59198,1.14467,1.89883
4.26279,2.54733,0.996872
4.26217,2.55125,0.997089
4.26155,2.55517,0.997309
4.26093,2.55909,0.99753
4.26031,2.56301,0.997747
4.60233,2.61958,0.61548
4.60165,2.62357,0.615763
4.60097,2.62755,0.616045
5.06659,2.69674,0.0965538
5.0495,2.79448,0.103811
5.03098,2.90032,0.111668
5.03027,2.90439,0.111971
5.02956,2.90846,0.112272
5.02884,2.91253,0.112576
5.02813,2.91661,0.112877
5.02742,2.92068,0.11318
4.41433,6.42566,0.373426
