1.02295,-1.24254,0.0157299
1.02247,-1.23888,0.0158005
1.022,-1.23522,0.0158691
1.02152,-1.23155,0.0159416
1.02105,-1.22789,0.0160103
1.02057,-1.22423,0.0160789
1.0201,-1.22057,0.0161514
1.01962,-1.2169,0.0162201
1.01915,-1.21324,0.0162888
1.01867,-1.20958,0.0163612
1.01819,-1.20591,0.0164318
1.00011,-1.06668,0.0191174
0.99963,-1.06302,0.0191879
0.999155,-1.05935,0.0192585
0.998678,-1.05569,0.0193291
0.998203,-1.05202,0.0193977
0.997725,-1.04836,0.0194721
0.99725,-1.04469,0.0195408
0.996775,-1.04103,0.0196114
0.996298,-1.03736,0.0196819
0.995823,-1.0337,0.0197525
0.995346,-1.03004,0.0198212
0.994871,-1.02637,0.0198936
0.994394,-1.02271,0.0199642
0.993919,-1.01904,0.0200348
0.993443,-1.01538,0.0201054
0.992968,-1.01171,0.020174
0.98773,-0.971394,0.0209522
0.987253,-0.967729,0.0210209
0.986778,-0.964064,0.0210934
0.9863,-0.960398,0.0211678
0.985823,-0.956733,0.0212383
0.985348,-0.953067,0.021307
0.984873,-0.949402,0.0213757
0.944862,-0.641397,0.0273132
0.944386,-0.637729,0.0273857
0.943911,-0.634061,0.0274544
0.929613,-0.524006,0.0295753
0.929138,-0.520337,0.0296478
0.928659,-0.516668,0.0297184
0.928183,-0.512999,0.029789
0.927706,-0.50933,0.0298615
0.927229,-0.505661,0.0299301
0.926754,-0.501992,0.0299988
0.926277,-0.498323,0.0300732
0.9258,-0.494654,0.0301418
0.92437,-0.483646,0.0303555
0.923893,-0.479977,0.030426
0.901964,-0.311157,0.03368
0.901489,-0.307487,0.0337486
0.901011,-0.303816,0.0338211
0.900534,-0.300145,0.0338917
0.900057,-0.296474,0.0339622
0.899582,-0.292804,0.0340328
0.898626,-0.285462,0.0341759
0.864283,-0.0210812,0.0392723
0.863808,-0.0174081,0.0393391
0.863329,-0.013735,0.0394115
0.848061,0.103819,0.0416756
0.847584,0.107493,0.0417461
0.847105,0.111167,0.0418205
0.846628,0.114842,0.0418873
0.846151,0.118516,0.0419598
0.845675,0.12219,0.0420303
0.845196,0.125864,0.0421028
0.844721,0.129538,0.0421715
0.844242,0.133213,0.042244
0.843763,0.136887,0.0423145
0.843287,0.140561,0.0423851
0.84281,0.144236,0.0424557
0.842333,0.14791,0.0425243
0.841854,0.151584,0.0425987
0.841377,0.155259,0.0426693
0.8409,0.158933,0.0427399
0.838037,0.180981,0.0431633
0.837561,0.184656,0.0432339
0.837082,0.18833,0.0433064
0.836605,0.192005,0.0433788
0.836126,0.19568,0.0434475
0.835649,0.199355,0.0435181
0.835173,0.203029,0.0435905
0.834694,0.206704,0.0436592
0.834217,0.210379,0.0437298
0.83374,0.214054,0.0438023
0.833261,0.217729,0.0438747
0.832785,0.221404,0.0439434
0.526463,2.57956,0.0893955
0.525982,2.58325,0.089468
0.525503,2.58694,0.0895386
0.525023,2.59064,0.0896091
0.524544,2.59433,0.0896797
0.524063,2.59803,0.0897503
0.523582,2.60172,0.0898247
0.523104,2.60542,0.0898952
0.522623,2.60911,0.0899658
0.0576773,6.18839,0.158955
0.0571928,6.19212,0.159027
0.0567093,6.19584,0.1591
1.13594,-2.11048,-0.00779724
1.13546,-2.10682,-0.00772667
1.13499,-2.10317,-0.0076561
1.13451,-2.09951,-0.00758743
1.13404,-2.09585,-0.00751495
1.13356,-2.0922,-0.00744438
1.11646,-1.96053,-0.00490761
1.11599,-1.95687,-0.00483704
1.11551,-1.95321,-0.00476456
1.11503,-1.94956,-0.00469398
1.09365,-1.78492,-0.00152397
1.09317,-1.78126,-0.0014534
1.0927,-1.7776,-0.00138092
1.07891,-1.67146,0.000663757
1.07843,-1.6678,0.000732422
1.05323,-1.47376,0.00447083
1.05276,-1.4701,0.00453949
1.03896,-1.36389,0.00658607
1.03848,-1.36023,0.00665665
1.03801,-1.35657,0.00672913
1.03753,-1.3529,0.0067997
1.03705,-1.34924,0.00686836
1.02849,-1.2833,0.00813675
1.02801,-1.27964,0.00820923
1.02754,-1.27598,0.0082798
1.02706,-1.27231,0.00835228
1.01802,-1.2027,0.00969315
1.01754,-1.19904,0.00976372
1.01707,-1.19537,0.00983429
1.01659,-1.19171,0.00990486
1.01612,-1.18804,0.00997543
1.01564,-1.18438,0.0100479
1.01516,-1.18072,0.0101185
1.01469,-1.17705,0.0101871
1.01421,-1.17339,0.0102577
1.01373,-1.16972,0.0103302
1.00374,-1.09276,0.0118122
1.00326,-1.0891,0.0118809
1.00279,-1.08543,0.0119514
1.00231,-1.08177,0.012022
1.00183,-1.0781,0.0120945
1.00136,-1.07444,0.0121632
1.00088,-1.07077,0.0122356
0.984692,-0.946141,0.0146351
0.984217,-0.942475,0.0147057
0.98374,-0.938809,0.0147762
0.983265,-0.935142,0.0148468
0.982788,-0.931476,0.0149155
0.966116,-0.803137,0.0173931
0.965162,-0.795802,0.0175362
0.964685,-0.792135,0.0176029
0.964211,-0.788468,0.0176716
0.963736,-0.7848,0.0177441
0.963259,-0.781133,0.0178127
0.962782,-0.777465,0.0178852
0.962307,-0.773798,0.0179539
0.96183,-0.77013,0.0180244
0.961351,-0.766462,0.0180988
0.960876,-0.762795,0.0181675
0.9604,-0.759127,0.0182381
0.947058,-0.65642,0.0202198
0.946581,-0.652751,0.0202885
0.946104,-0.649082,0.020359
0.945627,-0.645414,0.0204315
0.92561,-0.491305,0.0233994
0.925133,-0.487635,0.0234699
0.923704,-0.476625,0.0236797
0.923225,-0.472955,0.0237541
0.922749,-0.469285,0.0238247
0.922272,-0.465615,0.0238934
0.921795,-0.461945,0.0239658
0.92132,-0.458275,0.0240345
0.920841,-0.454605,0.0241051
0.920364,-0.450934,0.0241795
0.919888,-0.447264,0.0242481
0.919411,-0.443594,0.0243206
0.918936,-0.439924,0.0243874
0.918457,-0.436253,0.0244617
0.91798,-0.432583,0.0245323
0.917505,-0.428913,0.024601
0.917027,-0.425242,0.0246754
0.916552,-0.421572,0.024744
0.916075,-0.417901,0.0248127
0.915596,-0.414231,0.0248852
0.915121,-0.41056,0.0249557
0.914642,-0.40689,0.0250282
0.914165,-0.403219,0.0250988
0.913691,-0.399549,0.0251656
0.913212,-0.395878,0.0252399
0.904154,-0.32613,0.0265827
0.903677,-0.322459,0.0266495
0.9032,-0.318787,0.02672
0.902723,-0.315116,0.0267944
0.863127,-0.0102936,0.0326672
0.862648,-0.00661982,0.0327377
0.862173,-0.00294598,0.0328083
0.851671,0.0778862,0.0343666
0.851194,0.0815607,0.0344372
0.850718,0.0852353,0.0345078
0.850239,0.0889099,0.0345783
0.849762,0.0925845,0.0346489
0.849283,0.0962592,0.0347214
0.848808,0.0999339,0.03479
0.522356,2.61306,0.08321
0.521875,2.61676,0.0832825
0.521395,2.62045,0.083353
0.520916,2.62415,0.0834236
0.520435,2.62784,0.083498
0.519955,2.63154,0.0835667
0.519474,2.63523,0.0836391
0.518995,2.63893,0.0837078
0.518515,2.64262,0.0837803
0.508915,2.71654,0.0852032
0.508434,2.72023,0.0852757
0.507954,2.72393,0.0853462
0.507471,2.72763,0.0854206
0.506992,2.73132,0.0854893
0.506512,2.73502,0.0855618
0.506031,2.73871,0.0856323
0.505552,2.74241,0.0857029
0.505072,2.74611,0.0857735
0.504591,2.7498,0.0858479
0.50411,2.7535,0.0859184
0.503632,2.7572,0.085989
0.503151,2.76089,0.0860596
0.50267,2.76459,0.086132
0.502192,2.76829,0.0862007
0.501711,2.77198,0.0862732
0.50123,2.77568,0.0863457
0.0587692,6.18187,0.151974
0.0582867,6.18559,0.152042
1.28383,-3.24711,-0.0364857
1.28335,-3.24346,-0.0364132
1.28288,-3.23982,-0.0363464
1.28241,-3.23617,-0.036274
1.28193,-3.23252,-0.0362053
1.28146,-3.22887,-0.0361347
1.28099,-3.22522,-0.036068
1.28051,-3.22157,-0.0359974
1.28004,-3.21793,-0.0359268
1.27957,-3.21428,-0.0358582
1.27909,-3.21063,-0.0357857
1.14196,-2.15499,-0.0154495
1.14149,-2.15133,-0.0153847
1.14101,-2.14767,-0.0153122
1.14054,-2.14402,-0.0152397
1.14006,-2.14036,-0.0151672
1.13959,-2.1367,-0.0151024
1.13911,-2.13304,-0.0150299
1.13864,-2.12939,-0.0149593
1.13816,-2.12573,-0.0148888
1.13769,-2.12207,-0.0148201
1.13721,-2.11842,-0.0147514
1.13674,-2.11476,-0.014679
1.11488,-1.94649,-0.0114384
1.1144,-1.94283,-0.0113678
1.11393,-1.93917,-0.0112953
1.11345,-1.93551,-0.0112286
1.11298,-1.93185,-0.0111542
1.09492,-1.7928,-0.00847816
1.09444,-1.78913,-0.00840569
1.07827,-1.66468,-0.00601006
1.0778,-1.66102,-0.00594139
1.07732,-1.65736,-0.00587082
1.064,-1.55483,-0.0038929
1.06353,-1.55117,-0.00382233
1.06305,-1.54751,-0.00375366
1.06258,-1.54385,-0.00368309
1.0621,-1.54019,-0.00361061
1.06163,-1.53652,-0.00354195
1.06115,-1.53286,-0.00347328
1.06067,-1.5292,-0.00340271
1.05639,-1.49624,-0.00276566
1.05592,-1.49258,-0.00269508
1.05544,-1.48891,-0.00262451
1.05497,-1.48525,-0.00255585
1.05449,-1.48159,-0.00248337
1.05401,-1.47793,-0.0024128
1.03688,-1.34606,0.000127792
1.03641,-1.34239,0.000196457
1.03593,-1.33873,0.000267029
1.03546,-1.33507,0.000339508
1.03498,-1.3314,0.00041008
1.03117,-1.30209,0.000974655
1.0307,-1.29843,0.00104523
1.03022,-1.29476,0.0011158
1.02975,-1.2911,0.00118637
1.02927,-1.28743,0.00125504
1.01356,-1.1665,0.003582
1.01309,-1.16284,0.00365257
1.01261,-1.15917,0.00372505
1.01213,-1.15551,0.00379562
1.01166,-1.15184,0.0038681
1.01118,-1.14818,0.00393867
1.0107,-1.14451,0.00400925
1.01023,-1.14085,0.00408173
1.00975,-1.13718,0.0041523
1.00927,-1.13352,0.00422287
1.0088,-1.12985,0.00428772
1.00832,-1.12619,0.0043602
1.00785,-1.12252,0.00443077
1.00737,-1.11886,0.00450134
1.0069,-1.11519,0.00457382
1.00642,-1.11152,0.00464439
1.00594,-1.10786,0.00471497
1.00546,-1.10419,0.00478745
1.00499,-1.10053,0.00485802
1.00451,-1.09686,0.00492668
0.982605,-0.928211,0.0081749
0.98213,-0.924544,0.00824547
0.981653,-0.920877,0.00831795
0.981176,-0.91721,0.00838661
0.977844,-0.89154,0.00887871
0.977367,-0.887872,0.00894928
0.976892,-0.884205,0.00901985
0.976414,-0.880538,0.00909233
0.975939,-0.87687,0.009161
0.975462,-0.873203,0.00923347
0.974985,-0.869535,0.00930214
0.97451,-0.865868,0.00937271
0.974033,-0.8622,0.00944328
0.973555,-0.858533,0.00951576
0.97308,-0.854865,0.00958633
0.972603,-0.851198,0.00965881
0.972126,-0.84753,0.00972748
0.971651,-0.843862,0.00979614
0.971174,-0.840195,0.00986862
0.970697,-0.836527,0.00993919
0.970221,-0.832859,0.0100098
0.969744,-0.829191,0.0100822
0.969269,-0.825523,0.0101509
0.968792,-0.821856,0.0102215
0.968313,-0.818188,0.0102959
0.967838,-0.81452,0.0103645
0.967363,-0.810852,0.0104332
0.966887,-0.807184,0.0105019
0.965933,-0.799848,0.0106487
0.960213,-0.755829,0.0114956
0.959738,-0.75216,0.0115643
0.959261,-0.748492,0.0116348
0.958784,-0.744823,0.0117092
0.958307,-0.741155,0.0117779
0.957832,-0.737486,0.0118484
0.957354,-0.733818,0.0119209
0.956877,-0.730149,0.0119915
0.94973,-0.675117,0.0130501
0.949253,-0.671448,0.0131187
0.948778,-0.667778,0.0131893
0.948301,-0.664109,0.0132599
0.947824,-0.66044,0.0133305
0.913019,-0.39251,0.0184898
0.912542,-0.388838,0.0185642
0.912066,-0.385167,0.0186329
0.911589,-0.381495,0.0187054
0.911112,-0.377824,0.018774
0.910635,-0.374153,0.0188427
0.910158,-0.370481,0.0189171
0.909681,-0.366809,0.0189857
0.909204,-0.363138,0.0190563
0.907295,-0.348451,0.0193405
0.90682,-0.344779,0.0194092
0.906342,-0.341108,0.0194836
0.905865,-0.337436,0.0195541
0.905388,-0.333764,0.0196228
0.904911,-0.330092,0.0196953
0.861971,0.00049814,0.0260582
0.861494,0.00417273,0.0261288
0.861015,0.00784734,0.0262012
0.855286,0.0519451,0.02705
0.854809,0.0556201,0.0271225
0.854332,0.0592951,0.0271912
0.853855,0.0629702,0.0272636
0.853376,0.0666453,0.0273342
0.8529,0.0703204,0.0274067
0.852423,0.0739956,0.0274734
0.518244,2.64658,0.0770226
0.517765,2.65028,0.077095
0.517284,2.65397,0.0771675
0.516806,2.65767,0.0772362
0.516325,2.66136,0.0773087
0.515846,2.66506,0.0773773
0.515364,2.66876,0.0774498
0.514883,2.67245,0.0775242
0.514404,2.67615,0.0775928
0.513924,2.67985,0.0776653
0.513445,2.68354,0.077734
0.512964,2.68724,0.0778065
0.512486,2.69094,0.0778751
0.512003,2.69463,0.0779476
0.511522,2.69833,0.0780201
0.511044,2.70203,0.0780888
0.510563,2.70572,0.0781631
0.510082,2.70942,0.0782337
0.509604,2.71312,0.0783043
0.500957,2.77966,0.079586
0.500479,2.78336,0.0796566
0.499999,2.78706,0.0797272
0.499517,2.79075,0.0797997
0.059864,6.17534,0.144985
0.0593805,6.17906,0.145056
1.28655,-3.26619,-0.0436497
1.28608,-3.26254,-0.0435791
1.2856,-3.25889,-0.0435047
1.28513,-3.25524,-0.0434361
1.28465,-3.25159,-0.0433655
1.27897,-3.2078,-0.0425224
1.27849,-3.20415,-0.0424519
1.27802,-3.2005,-0.0423832
1.19263,-2.54317,-0.0297298
1.17839,-2.43351,-0.0276146
1.17791,-2.42986,-0.027544
1.15844,-2.27996,-0.0246601
1.15797,-2.2763,-0.0245895
1.15749,-2.27265,-0.0245171
1.15702,-2.26899,-0.0244522
1.15654,-2.26533,-0.0243797
1.15607,-2.26168,-0.0243092
1.15559,-2.25802,-0.0242386
1.15512,-2.25436,-0.0241661
1.15464,-2.25071,-0.0240974
1.15417,-2.24705,-0.0240269
1.15369,-2.24339,-0.0239544
1.15322,-2.23973,-0.0238838
1.15274,-2.23608,-0.0238152
1.15227,-2.23242,-0.0237446
1.15179,-2.22876,-0.0236759
1.15132,-2.22511,-0.0236034
1.14751,-2.19585,-0.0230389
1.14704,-2.19219,-0.0229683
1.14656,-2.18853,-0.0228996
1.14609,-2.18488,-0.0228291
1.14561,-2.18122,-0.0227566
1.14514,-2.17756,-0.0226879
1.14466,-2.1739,-0.0226173
1.14419,-2.17025,-0.0225487
1.14371,-2.16659,-0.0224781
1.14324,-2.16293,-0.0224056
1.14276,-2.15927,-0.0223351
1.11282,-1.92878,-0.0178986
1.11235,-1.92512,-0.017828
1.11187,-1.92146,-0.0177593
1.09618,-1.80068,-0.0154343
1.09571,-1.79702,-0.0153618
1.07716,-1.65423,-0.0126152
1.06669,-1.57366,-0.0110607
1.06622,-1.57,-0.0109921
1.06574,-1.56634,-0.0109215
1.06527,-1.56268,-0.0108528
1.06479,-1.55901,-0.0107784
1.06051,-1.52605,-0.0101452
1.06003,-1.52239,-0.0100765
1.05956,-1.51872,-0.010004
1.05908,-1.51506,-0.00993347
1.05861,-1.5114,-0.00986481
1.05813,-1.50774,-0.00979424
1.05766,-1.50407,-0.00972176
1.05718,-1.50041,-0.00965118
1.03481,-1.32821,-0.00633621
1.03434,-1.32455,-0.00626755
1.03386,-1.32088,-0.00619698
1.03338,-1.31722,-0.0061245
1.03291,-1.31356,-0.00605392
1.03243,-1.30989,-0.00598526
1.03195,-1.30623,-0.00591087
0.980995,-0.913942,0.00164032
0.98052,-0.910274,0.0017128
0.980043,-0.906606,0.00177956
0.979568,-0.902938,0.00185013
0.979092,-0.89927,0.00192261
0.978615,-0.895603,0.00199127
0.956694,-0.726845,0.00524139
0.956217,-0.723176,0.00531006
0.95574,-0.719506,0.00538445
0.955263,-0.715837,0.00545311
0.954786,-0.712167,0.00552559
0.954311,-0.708498,0.00559235
0.953833,-0.704828,0.00566673
0.953356,-0.701159,0.0057354
0.952881,-0.697489,0.00580597
0.952402,-0.69382,0.00587654
0.951927,-0.69015,0.00594902
0.95145,-0.686481,0.00601768
0.950972,-0.682811,0.00609016
0.950497,-0.679141,0.00615883
0.90901,-0.359763,0.0123062
0.908533,-0.35609,0.0123806
0.908056,-0.352418,0.0124493
0.860809,0.0112942,0.0194511
0.860332,0.0149695,0.0195236
0.859856,0.0186449,0.0195942
0.859377,0.0223203,0.0196648
0.8589,0.0259958,0.0197372
0.858421,0.0296713,0.0198078
0.857944,0.0333468,0.0198784
0.857468,0.0370223,0.0199471
0.856991,0.0406979,0.0200176
0.856512,0.0443735,0.0200901
0.856035,0.0480491,0.0201607
0.499246,2.79474,0.0730362
0.498765,2.79844,0.0731087
0.498283,2.80214,0.0731812
0.497803,2.80583,0.0732536
0.497324,2.80953,0.0733223
0.496842,2.81323,0.0733948
0.476664,2.96858,0.0763836
0.476183,2.97228,0.0764542
0.475702,2.97598,0.0765285
0.474741,2.98338,0.0766697
0.060957,6.16881,0.137997
0.0604744,6.17254,0.138067
1.28927,-3.28526,-0.050808
1.2888,-3.28161,-0.0507355
1.28832,-3.27797,-0.0506668
1.28785,-3.27432,-0.0505943
1.28737,-3.27067,-0.0505257
1.27789,-3.19767,-0.0491219
1.27742,-3.19403,-0.0490532
1.24896,-2.97497,-0.0448341
1.24849,-2.97132,-0.0447655
1.24802,-2.96767,-0.0446949
1.24754,-2.96402,-0.0446262
1.24707,-2.96037,-0.0445538
1.24659,-2.95672,-0.0444832
1.24612,-2.95306,-0.0444126
1.24564,-2.94941,-0.0443439
1.24517,-2.94576,-0.0442753
1.2167,-2.72659,-0.0400581
1.21623,-2.72294,-0.0399857
1.2148,-2.71197,-0.0397778
1.21433,-2.70832,-0.0397034
1.19819,-2.58407,-0.0373116
1.19771,-2.58042,-0.0372429
1.19724,-2.57676,-0.0371742
1.19676,-2.57311,-0.0371017
1.19629,-2.56945,-0.0370331
1.19581,-2.5658,-0.0369625
1.19534,-2.56214,-0.0368938
1.19486,-2.55849,-0.0368195
1.19439,-2.55483,-0.0367508
1.19391,-2.55117,-0.0366802
1.19344,-2.54752,-0.0366116
1.19249,-2.54021,-0.0364723
1.19201,-2.53655,-0.0363979
1.19154,-2.5329,-0.0363293
1.19106,-2.52924,-0.0362587
1.19059,-2.52559,-0.0361862
1.19012,-2.52193,-0.0361176
1.18964,-2.51828,-0.036047
1.18917,-2.51462,-0.0359802
1.18869,-2.51097,-0.0359097
1.18822,-2.50731,-0.035841
1.18774,-2.50366,-0.0357666
1.18727,-2.5,-0.0356979
1.18679,-2.49634,-0.0356236
1.18632,-2.49269,-0.0355568
1.18584,-2.48903,-0.0354843
1.18537,-2.48538,-0.0354137
1.18489,-2.48172,-0.0353451
1.18442,-2.47807,-0.0352726
1.18394,-2.47441,-0.0352058
1.18347,-2.47075,-0.0351334
1.18299,-2.4671,-0.0350628
1.18252,-2.46344,-0.0349903
1.18204,-2.45979,-0.0349197
1.18157,-2.45613,-0.0348511
1.18109,-2.45247,-0.0347805
1.18062,-2.44882,-0.0347118
1.18014,-2.44516,-0.0346394
1.17967,-2.44151,-0.0345688
1.17919,-2.43785,-0.0345001
1.17777,-2.42688,-0.0342884
1.17729,-2.42323,-0.0342178
1.17682,-2.41957,-0.0341492
1.17634,-2.41591,-0.0340786
1.17587,-2.41226,-0.0340061
1.17539,-2.4086,-0.0339375
1.17492,-2.40494,-0.0338669
1.17445,-2.40129,-0.0337982
1.17397,-2.39763,-0.0337296
1.1735,-2.39398,-0.033659
1.17302,-2.39032,-0.0335903
1.17254,-2.38666,-0.0335159
1.16162,-2.30255,-0.0318947
1.16114,-2.2989,-0.0318241
1.16067,-2.29524,-0.0317535
1.16019,-2.29158,-0.0316868
1.15972,-2.28793,-0.0316162
1.15924,-2.28427,-0.0315437
1.15117,-2.22209,-0.0303497
1.15069,-2.21843,-0.0302773
1.15022,-2.21477,-0.0302067
1.14974,-2.21112,-0.0301361
1.14927,-2.20746,-0.0300636
1.14879,-2.2038,-0.029995
1.14832,-2.20014,-0.0299263
1.11172,-1.91839,-0.0245018
1.11124,-1.91473,-0.0244293
1.11076,-1.91106,-0.0243607
1.09793,-1.81222,-0.0224609
1.09745,-1.80856,-0.0223866
1.09698,-1.8049,-0.0223179
1.077,-1.6511,-0.0193596
1.07652,-1.64744,-0.019289
1.06843,-1.58517,-0.0180912
1.06796,-1.58151,-0.0180225
1.06748,-1.57785,-0.0179501
0.49657,2.81722,0.0666294
0.496088,2.82092,0.0667038
0.495607,2.82462,0.0667744
0.495129,2.82832,0.0668449
0.494647,2.83202,0.0669155
0.494165,2.83572,0.0669899
0.493687,2.83942,0.0670567
0.493206,2.84312,0.067131
0.492724,2.84681,0.0672016
0.492246,2.85051,0.0672684
0.491764,2.85421,0.0673428
0.491282,2.85791,0.0674152
0.490803,2.86161,0.0674877
0.490323,2.86531,0.0675564
0.489841,2.86901,0.0676289
0.489361,2.87271,0.0676994
0.488881,2.87641,0.0677681
0.488401,2.88011,0.0678406
0.48792,2.88381,0.0679111
0.487438,2.88751,0.0679855
0.486959,2.89121,0.0680523
0.486478,2.89491,0.0681248
0.483114,2.9208,0.0686226
0.482634,2.9245,0.068697
0.482153,2.9282,0.0687675
0.481672,2.9319,0.0688381
0.481193,2.9356,0.0689087
0.480711,2.9393,0.0689793
0.480231,2.943,0.0690498
0.47975,2.9467,0.0691242
0.479268,2.9504,0.0691948
0.47879,2.9541,0.0692616
0.478309,2.9578,0.0693359
0.477827,2.9615,0.0694084
0.477346,2.9652,0.0694771
0.475425,2.98,0.0697632
0.474463,2.9874,0.0699043
0.473981,2.9911,0.0699787
0.473501,2.99481,0.0700493
0.47302,2.99851,0.0701199
0.47254,3.00221,0.0701923
0.47206,3.00591,0.070261
0.471579,3.00961,0.0703335
0.471097,3.01331,0.0704041
0.470617,3.01701,0.0704765
0.470136,3.02071,0.070549
0.0620527,6.16228,0.131004
0.0615673,6.166,0.131079
1.32801,-3.58164,-0.0633049
1.32754,-3.578,-0.0632362
1.32707,-3.57435,-0.0631657
1.3266,-3.5707,-0.063097
1.32612,-3.56705,-0.0630226
1.32565,-3.56341,-0.0629539
1.32517,-3.55976,-0.0628834
1.3247,-3.55611,-0.0628147
1.32422,-3.55246,-0.0627441
1.32375,-3.54882,-0.0626755
1.29626,-3.3372,-0.0586033
1.29579,-3.33355,-0.0585346
1.29531,-3.3299,-0.0584641
1.29484,-3.32625,-0.0583916
1.29436,-3.3226,-0.058321
1.29389,-3.31895,-0.0582504
1.29342,-3.3153,-0.0581818
1.29294,-3.31165,-0.0581093
1.29247,-3.308,-0.0580406
1.292,-3.30435,-0.057972
1.29152,-3.3007,-0.0579014
1.29105,-3.29705,-0.0578327
1.29057,-3.2934,-0.0577621
1.2901,-3.28975,-0.0576935
1.2773,-3.19119,-0.0557957
1.27682,-3.18754,-0.055727
1.27635,-3.18389,-0.0556564
1.25121,-2.99036,-0.0519333
1.25073,-2.98671,-0.0518608
1.25026,-2.98306,-0.0517921
1.24978,-2.97941,-0.0517197
1.24504,-2.94288,-0.0510178
1.24457,-2.93923,-0.0509491
1.24409,-2.93558,-0.0508766
1.24362,-2.93192,-0.050808
1.24314,-2.92827,-0.0507355
1.24267,-2.92462,-0.0506668
1.22084,-2.75656,-0.0474358
1.22036,-2.7529,-0.0473614
1.21989,-2.74925,-0.0472927
1.21941,-2.74559,-0.0472221
1.21894,-2.74194,-0.0471535
1.21846,-2.73829,-0.0470829
1.21799,-2.73463,-0.0470104
1.21751,-2.73098,-0.0469418
1.21609,-2.72001,-0.0467319
1.21561,-2.71636,-0.0466595
1.21419,-2.7054,-0.0464497
1.21372,-2.70174,-0.046381
1.21324,-2.69809,-0.0463085
1.21277,-2.69443,-0.0462379
1.21229,-2.69078,-0.0461693
1.21182,-2.68712,-0.0460987
1.21134,-2.68347,-0.0460262
1.21087,-2.67981,-0.0459576
1.21039,-2.67616,-0.0458889
1.19995,-2.59574,-0.0443401
1.19947,-2.59209,-0.0442696
1.199,-2.58843,-0.0441971
1.1724,-2.38368,-0.0402603
1.17192,-2.38002,-0.0401897
1.17145,-2.37636,-0.0401211
1.17097,-2.3727,-0.0400505
1.1705,-2.36905,-0.039978
1.17002,-2.36539,-0.0399094
1.16432,-2.3215,-0.0390663
1.16385,-2.31784,-0.0389938
1.16337,-2.31418,-0.0389233
1.1629,-2.31053,-0.0388546
1.16242,-2.30687,-0.0387821
1.11061,-1.90799,-0.0311089
1.11013,-1.90433,-0.0310402
1.10966,-1.90067,-0.0309696
1.10918,-1.897,-0.030901
1.10871,-1.89334,-0.0308285
1.10823,-1.88968,-0.0307541
1.10776,-1.88602,-0.0306854
1.10728,-1.88236,-0.0306149
1.09967,-1.82377,-0.0294914
1.0992,-1.82011,-0.0294228
1.09872,-1.81645,-0.0293503
1.07636,-1.64431,-0.0260391
1.07588,-1.64065,-0.0259686
1.07541,-1.63699,-0.0258999
1.07017,-1.59669,-0.0251198
1.06969,-1.59302,-0.0250492
1.06922,-1.58936,-0.0249786
0.486202,2.89891,0.0613613
0.485721,2.90261,0.0614319
0.485241,2.90631,0.0615025
0.48476,2.91002,0.061573
0.484279,2.91372,0.0616436
0.4838,2.91742,0.0617161
0.469859,3.02474,0.0637798
0.469378,3.02844,0.0638504
0.468897,3.03214,0.063921
0.468415,3.03585,0.0639935
0.467934,3.03955,0.0640659
0.467456,3.04325,0.0641346
0.466974,3.04695,0.0642052
0.466493,3.05065,0.0642757
0.466012,3.05435,0.0643482
0.465531,3.05805,0.0644207
0.46505,3.06176,0.0644913
0.464569,3.06546,0.0645638
0.464087,3.06916,0.0646362
0.463606,3.07286,0.0647068
0.463126,3.07656,0.0647774
0.462645,3.08026,0.0648479
0.462163,3.08397,0.0649223
0.461685,3.08767,0.0649891
0.461204,3.09137,0.0650597
0.460722,3.09507,0.0651321
0.460241,3.09877,0.0652046
0.0636301,6.15202,0.12394
0.0631475,6.15574,0.12401
0.0626631,6.15947,0.124081
1.3298,-3.59348,-0.0703335
1.32932,-3.58983,-0.070261
1.32885,-3.58618,-0.0701923
1.32364,-3.54605,-0.0694199
1.32316,-3.5424,-0.0693493
1.32269,-3.53875,-0.0692768
1.32221,-3.53511,-0.0692081
1.32174,-3.53146,-0.0691376
1.29898,-3.35629,-0.0657711
1.29851,-3.35264,-0.0657024
1.29804,-3.34899,-0.06563
1.29756,-3.34534,-0.0655594
1.29709,-3.34169,-0.0654907
1.27622,-3.18106,-0.0624008
1.25393,-3.00941,-0.0590992
1.25345,-3.00576,-0.0590305
1.25298,-3.0021,-0.0589581
1.2525,-2.99845,-0.0588894
1.25203,-2.9948,-0.0588169
1.24254,-2.92173,-0.0574131
1.24206,-2.91808,-0.0573444
1.24159,-2.91443,-0.0572701
1.24111,-2.91077,-0.0572033
1.24064,-2.90712,-0.0571308
1.22355,-2.77557,-0.0545998
1.22308,-2.77192,-0.0545311
1.2226,-2.76826,-0.0544605
1.22213,-2.76461,-0.0543919
1.22165,-2.76095,-0.0543232
1.21025,-2.67323,-0.0526352
1.20978,-2.66957,-0.0525608
1.2093,-2.66592,-0.0524921
1.20883,-2.66226,-0.0524235
1.20835,-2.6586,-0.0523529
1.20788,-2.65495,-0.0522842
1.20741,-2.65129,-0.0522156
1.20361,-2.62205,-0.051651
1.20313,-2.61839,-0.0515785
1.20266,-2.61473,-0.0515099
1.20218,-2.61108,-0.0514412
1.20171,-2.60742,-0.0513687
1.20123,-2.60377,-0.0513
1.20076,-2.60011,-0.0512276
1.16988,-2.3624,-0.0466595
1.1694,-2.35874,-0.0465889
1.16893,-2.35508,-0.0465202
1.16846,-2.35142,-0.0464497
1.16798,-2.34777,-0.0463772
1.16751,-2.34411,-0.0463085
1.16703,-2.34045,-0.046236
1.16655,-2.33679,-0.0461636
1.16608,-2.33313,-0.0460949
1.1656,-2.32947,-0.0460243
1.16513,-2.32582,-0.0459518
1.10712,-1.87928,-0.0373688
1.10665,-1.87561,-0.0372963
1.10617,-1.87195,-0.0372257
1.1057,-1.86829,-0.0371571
1.10522,-1.86463,-0.0370865
1.10475,-1.86097,-0.0370178
1.10427,-1.8573,-0.0369453
1.10379,-1.85364,-0.0368748
1.10332,-1.84998,-0.0368061
1.10284,-1.84632,-0.0367355
1.10237,-1.84265,-0.0366631
1.10189,-1.83899,-0.0365925
1.10142,-1.83533,-0.0365238
1.10094,-1.83167,-0.0364532
1.10046,-1.828,-0.0363846
1.07525,-1.63386,-0.0326519
1.07477,-1.63019,-0.0325775
1.07429,-1.62653,-0.0325089
1.07382,-1.62286,-0.0324402
1.07334,-1.6192,-0.0323677
1.07287,-1.61553,-0.032299
1.07239,-1.61187,-0.0322266
1.07191,-1.60821,-0.032156
1.07144,-1.60454,-0.0320873
1.07096,-1.60088,-0.0320129
0.459961,3.10282,0.0584335
0.45948,3.10653,0.0585041
0.459001,3.11023,0.0585747
0.458519,3.11393,0.0586452
0.458037,3.11763,0.0587177
0.457555,3.12134,0.0587921
0.457074,3.12504,0.0588608
0.456594,3.12874,0.0589333
0.456113,3.13244,0.0590038
0.455631,3.13615,0.0590763
0.45515,3.13985,0.0591469
0.454668,3.14355,0.0592194
0.454188,3.14726,0.059288
0.453708,3.15096,0.0593605
0.453226,3.15466,0.0594311
0.452746,3.15837,0.0595016
0.452265,3.16207,0.0595722
0.451782,3.16577,0.0596466
0.451302,3.16947,0.0597172
0.436871,3.28058,0.0618515
0.43639,3.28429,0.0619202
0.435906,3.28799,0.0619946
0.435427,3.2917,0.062067
0.434945,3.2954,0.0621376
0.434463,3.2991,0.0622101
0.433982,3.30281,0.0622826
0.4335,3.30651,0.0623531
0.43302,3.31022,0.0624237
0.432539,3.31392,0.0624943
0.432057,3.31763,0.0625648
0.431577,3.32133,0.0626354
0.431095,3.32504,0.062706
0.408476,3.49918,0.0660553
0.407992,3.50288,0.0661278
0.407513,3.50659,0.0661983
0.407031,3.5103,0.0662689
0.406549,3.514,0.0663414
0.406069,3.51771,0.0664101
0.405587,3.52141,0.0664825
0.405106,3.52512,0.0665531
0.404623,3.52883,0.0666256
0.404142,3.53253,0.0666981
0.39355,3.61408,0.0682659
0.393068,3.61778,0.0683365
0.392587,3.62149,0.068409
0.392106,3.6252,0.0684776
0.391624,3.6289,0.0685501
0.391144,3.63261,0.0686188
0.39066,3.63632,0.0686932
0.390179,3.64002,0.0687637
0.389698,3.64373,0.0688343
0.389216,3.64744,0.0689068
0.388736,3.65115,0.0689774
0.0656948,6.13802,0.1168
0.0652113,6.14175,0.116869
0.0647278,6.14548,0.116941
0.0642424,6.14921,0.117014
1.33252,-3.61262,-0.0774975
1.33205,-3.60897,-0.0774307
1.33158,-3.60532,-0.0773621
1.3311,-3.60167,-0.0772858
1.33063,-3.59802,-0.0772171
1.32162,-3.52869,-0.0758858
1.32115,-3.52504,-0.0758133
1.32067,-3.52139,-0.0757446
1.3202,-3.51774,-0.075676
1.30076,-3.36809,-0.0727978
1.30029,-3.36444,-0.0727272
1.29981,-3.36079,-0.0726585
1.2761,-3.17822,-0.069149
1.27562,-3.17457,-0.0690765
1.27515,-3.17092,-0.0690079
1.26281,-3.07595,-0.0671825
1.26186,-3.06865,-0.0670395
1.26139,-3.06499,-0.0669708
1.26091,-3.06134,-0.0669003
1.26044,-3.05769,-0.0668316
1.25617,-3.02481,-0.0662003
1.2557,-3.02116,-0.0661316
1.25522,-3.0175,-0.066061
1.25475,-3.01385,-0.0659904
1.24051,-2.90423,-0.0638847
1.24003,-2.90058,-0.0638123
1.23956,-2.89692,-0.0637436
1.23908,-2.89327,-0.063673
1.23861,-2.88962,-0.0635986
1.22579,-2.79093,-0.0617046
1.22532,-2.78728,-0.0616341
1.22484,-2.78362,-0.0615654
1.22437,-2.77997,-0.0614967
1.20727,-2.64836,-0.0589619
1.20679,-2.6447,-0.0588913
1.20632,-2.64104,-0.0588207
1.20584,-2.63739,-0.0587521
1.20537,-2.63373,-0.0586834
1.20489,-2.63007,-0.058609
1.20442,-2.62642,-0.0585403
0.45102,3.17354,0.0529423
0.450539,3.17724,0.0530148
0.450059,3.18095,0.0530834
0.449578,3.18465,0.0531559
0.449097,3.18835,0.0532265
0.448615,3.19206,0.053299
0.448133,3.19576,0.0533714
0.447652,3.19947,0.053442
0.44717,3.20317,0.0535126
0.440916,3.25133,0.0544376
0.440434,3.25503,0.054512
0.439953,3.25874,0.0545807
0.439471,3.26244,0.0546532
0.43899,3.26615,0.0547237
0.43851,3.26985,0.0547943
0.438029,3.27355,0.0548649
0.437548,3.27726,0.0549355
0.430808,3.32913,0.0559349
0.430329,3.33283,0.0560036
0.429848,3.33654,0.056076
0.429366,3.34025,0.0561466
0.428885,3.34395,0.0562172
0.428402,3.34766,0.0562916
0.427921,3.35136,0.0563622
0.42744,3.35507,0.0564327
0.426959,3.35877,0.0565033
0.426477,3.36248,0.0565739
0.411074,3.48107,0.0588531
0.410592,3.48477,0.0589237
0.41011,3.48848,0.0589962
0.409628,3.49219,0.0590687
0.409146,3.49589,0.0591393
0.403852,3.53667,0.0599213
0.403369,3.54037,0.0599957
0.402887,3.54408,0.0600662
0.402407,3.54779,0.0601368
0.401925,3.55149,0.0602074
0.401443,3.5552,0.0602779
0.400961,3.55891,0.0603523
0.396628,3.59227,0.0609894
0.396146,3.59598,0.0610638
0.395665,3.59969,0.0611343
0.395183,3.6034,0.0612049
0.394703,3.6071,0.0612755
0.39422,3.61081,0.0613461
0.388439,3.6553,0.0622044
0.387958,3.65901,0.0622768
0.387477,3.66272,0.0623455
0.0726023,6.08675,0.108938
0.0721178,6.09047,0.109013
0.0716333,6.0942,0.109083
0.0711489,6.09793,0.109156
0.0706644,6.10166,0.109226
0.0701809,6.10539,0.109297
0.0696955,6.10911,0.109371
0.0692129,6.11284,0.109442
0.0687265,6.11657,0.109514
0.068244,6.1203,0.109585
0.0677595,6.12403,0.109655
0.067276,6.12775,0.109726
0.0667906,6.13148,0.1098
0.0663052,6.13521,0.109873
1.36037,-3.82512,-0.0883846
1.3599,-3.82147,-0.088316
1.35942,-3.81782,-0.0882416
1.35895,-3.81418,-0.088171
1.35848,-3.81053,-0.0881023
1.358,-3.80688,-0.0880337
1.35753,-3.80323,-0.087965
1.34142,-3.67919,-0.0855808
1.34094,-3.67555,-0.0855083
1.34047,-3.6719,-0.0854397
1.34,-3.66825,-0.085371
1.33952,-3.6646,-0.0853004
1.33905,-3.66095,-0.0852299
1.33857,-3.6573,-0.0851574
1.3381,-3.65365,-0.0850887
1.33763,-3.65,-0.0850201
1.33715,-3.64636,-0.0849495
1.33668,-3.64271,-0.0848808
1.3362,-3.63906,-0.0848103
1.33573,-3.63541,-0.0847359
1.33525,-3.63176,-0.0846672
1.33478,-3.62811,-0.0845985
1.33431,-3.62446,-0.084528
1.33383,-3.62081,-0.0844593
1.33336,-3.61716,-0.0843868
1.32008,-3.51497,-0.0824242
1.31961,-3.51132,-0.0823536
1.31914,-3.50767,-0.0822849
1.31866,-3.50402,-0.0822124
1.31819,-3.50037,-0.0821419
1.31771,-3.49672,-0.0820713
1.31724,-3.49307,-0.0820026
1.31676,-3.48942,-0.0819302
1.31629,-3.48577,-0.0818653
1.30254,-3.3799,-0.0798283
1.30207,-3.37625,-0.0797615
1.30159,-3.3726,-0.0796909
1.27502,-3.16808,-0.0757599
1.27455,-3.16443,-0.0756912
1.26696,-3.10598,-0.0745659
1.26649,-3.10233,-0.0744972
1.26601,-3.09867,-0.0744267
1.26554,-3.09502,-0.074358
1.26506,-3.09137,-0.0742874
1.26458,-3.08771,-0.0742149
1.26411,-3.08406,-0.0741444
1.26364,-3.08041,-0.0740738
1.26269,-3.0731,-0.0739365
1.26031,-3.05483,-0.0735817
1.25984,-3.05118,-0.0735111
1.25936,-3.04752,-0.0734425
1.25889,-3.04387,-0.0733719
1.25841,-3.04021,-0.0732994
1.25794,-3.03656,-0.0732307
1.25747,-3.03291,-0.0731621
1.25699,-3.02925,-0.0730934
1.23848,-2.88672,-0.0703526
1.238,-2.88307,-0.0702839
1.23753,-2.87941,-0.0702133
1.23705,-2.87576,-0.0701447
1.22755,-2.80265,-0.0687351
1.22708,-2.79899,-0.0686665
1.22661,-2.79534,-0.0685997
0.446887,3.20724,0.0467377
0.446406,3.21095,0.0468082
0.445926,3.21465,0.0468788
0.445444,3.21836,0.0469513
0.444963,3.22206,0.0470219
0.444482,3.22577,0.0470924
0.444001,3.22947,0.047163
0.44352,3.23318,0.0472355
0.443039,3.23688,0.0473042
0.442557,3.24059,0.0473766
0.442075,3.24429,0.0474491
0.441593,3.248,0.0475216
0.42619,3.36658,0.049799
0.425709,3.37028,0.0498695
0.425227,3.37399,0.0499401
0.424747,3.3777,0.0500107
0.424266,3.3814,0.0500813
0.423782,3.38511,0.0501556
0.423302,3.38882,0.0502262
0.42282,3.39252,0.0502968
0.422338,3.39623,0.0503693
0.414636,3.45554,0.0515079
0.414154,3.45924,0.0515785
0.413672,3.46295,0.051651
0.41319,3.46666,0.0517216
0.412709,3.47036,0.0517921
0.412229,3.47407,0.0518627
0.411745,3.47778,0.0519371
0.400668,3.56305,0.0535755
0.400187,3.56676,0.0536461
0.399705,3.57046,0.0537186
0.399224,3.57417,0.0537872
0.398743,3.57788,0.0538597
0.398261,3.58159,0.0539303
0.39778,3.5853,0.0540009
0.397297,3.589,0.0540733
0.387182,3.66688,0.0555687
0.386701,3.67059,0.0556393
0.38622,3.6743,0.0557098
0.0746679,6.07274,0.101795
0.0741835,6.07647,0.101866
0.0737,6.0802,0.101936
0.0732145,6.08392,0.102011
1.36263,-3.84065,-0.0954819
1.36216,-3.837,-0.0954132
1.36168,-3.83335,-0.0953445
1.36121,-3.8297,-0.0952721
1.35742,-3.80052,-0.0947151
1.35695,-3.79687,-0.0946445
1.35647,-3.79322,-0.094574
1.356,-3.78957,-0.0945053
1.35552,-3.78592,-0.0944328
1.34415,-3.69835,-0.0927505
1.34368,-3.6947,-0.0926819
1.3432,-3.69105,-0.0926132
1.34273,-3.6874,-0.0925407
1.34225,-3.68375,-0.092474
1.31617,-3.48299,-0.0886154
1.3157,-3.47934,-0.0885448
1.31522,-3.47569,-0.0884724
1.31475,-3.47204,-0.0884037
1.31428,-3.46839,-0.0883331
1.3138,-3.46474,-0.0882645
1.31333,-3.46109,-0.0881939
1.31285,-3.45744,-0.0881252
1.31238,-3.45378,-0.0880527
1.31191,-3.45013,-0.0879841
1.31143,-3.44648,-0.0879135
1.30432,-3.39171,-0.0868607
1.30384,-3.38806,-0.086792
1.30337,-3.38441,-0.0867214
1.27443,-3.16159,-0.0824432
1.27395,-3.15794,-0.0823727
1.27348,-3.15428,-0.082304
1.273,-3.15063,-0.0822334
1.27253,-3.14698,-0.0821648
1.27205,-3.14332,-0.0820923
1.27158,-3.13967,-0.0820179
1.2711,-3.13602,-0.081953
1.27063,-3.13236,-0.0818825
1.27015,-3.12871,-0.08181
1.26968,-3.12505,-0.0817413
1.26921,-3.1214,-0.0816708
1.26873,-3.11775,-0.0815983
1.26826,-3.11409,-0.0815334
1.26778,-3.11044,-0.081459
1.23692,-2.87286,-0.0768948
1.23644,-2.86921,-0.0768261
1.23597,-2.86555,-0.0767574
1.2355,-2.8619,-0.0766888
1.23502,-2.85824,-0.0766201
1.23455,-2.85458,-0.0765495
1.23407,-2.85093,-0.0764751
1.23075,-2.82533,-0.0759869
1.23027,-2.82168,-0.0759163
1.2298,-2.81802,-0.0758438
1.22932,-2.81436,-0.0757694
1.22885,-2.81071,-0.0757008
1.22837,-2.80705,-0.0756321
0.42205,3.40034,0.0435905
0.421569,3.40404,0.0436611
0.421087,3.40775,0.0437336
0.420606,3.41146,0.0438042
0.420124,3.41517,0.0438747
0.419642,3.41887,0.0439453
0.419161,3.42258,0.0440178
0.418679,3.42629,0.0440884
0.418199,3.43,0.0441589
0.417717,3.4337,0.0442295
0.417235,3.43741,0.0443001
0.416754,3.44112,0.0443726
0.416271,3.44483,0.044445
0.41579,3.44853,0.0445156
0.415308,3.45224,0.0445881
0.385924,3.67846,0.0489311
0.385441,3.68217,0.0490036
0.353632,3.92706,0.0537052
0.353149,3.93077,0.0537758
0.352184,3.93819,0.0539227
0.0762491,6.06245,0.0947208
0.0757656,6.06618,0.0947914
0.0752811,6.06991,0.094862
1.43168,-4.37035,-0.112461
1.43121,-4.3667,-0.112387
1.43073,-4.36306,-0.112316
1.43026,-4.35941,-0.112249
1.42979,-4.35577,-0.112181
1.42932,-4.35212,-0.112112
1.38859,-4.03858,-0.106092
1.38811,-4.03493,-0.106018
1.38764,-4.03128,-0.105951
1.38717,-4.02764,-0.105881
1.38669,-4.02399,-0.105812
1.38622,-4.02034,-0.105742
1.38575,-4.01669,-0.105673
1.38527,-4.01305,-0.105598
1.3848,-4.0094,-0.10553
1.38432,-4.00575,-0.105459
1.38385,-4.0021,-0.105391
1.38338,-3.99846,-0.105322
1.36442,-3.85253,-0.102522
1.36395,-3.84889,-0.102448
1.36347,-3.84524,-0.102379
1.35541,-3.7832,-0.101185
1.35494,-3.77956,-0.101118
1.35447,-3.77591,-0.101049
1.35399,-3.77226,-0.100981
1.34688,-3.71751,-0.0999222
1.34641,-3.71386,-0.0998535
1.34593,-3.71021,-0.0997849
1.34546,-3.70656,-0.0997162
1.34498,-3.70291,-0.0996456
1.31131,-3.4437,-0.0946693
1.31084,-3.44005,-0.0945988
1.31037,-3.43639,-0.0945301
1.30989,-3.43274,-0.0944557
1.30942,-3.42909,-0.0943871
1.30894,-3.42544,-0.0943165
1.30847,-3.42178,-0.0942478
1.30799,-3.41813,-0.0941792
1.30752,-3.41448,-0.0941105
1.30704,-3.41083,-0.094038
1.30657,-3.40718,-0.0939693
1.3061,-3.40352,-0.0938988
1.30562,-3.39987,-0.0938282
1.30515,-3.39622,-0.0937595
1.23394,-2.84803,-0.0832329
1.23346,-2.84437,-0.0831623
1.23299,-2.84071,-0.0830936
1.23251,-2.83706,-0.0830193
1.23203,-2.8334,-0.0829487
1.23156,-2.82974,-0.08288
0.385146,3.68633,0.0422211
0.384665,3.69004,0.0422916
0.384183,3.69375,0.0423622
0.356706,3.90529,0.046423
0.356224,3.909,0.0464935
0.355742,3.91271,0.0465641
0.355258,3.91642,0.0466385
0.354776,3.92013,0.0467091
0.354294,3.92385,0.0467815
0.352848,3.93498,0.0469933
0.351883,3.94241,0.0471382
0.351401,3.94612,0.0472088
0.350919,3.94983,0.0472794
0.350436,3.95355,0.0473518
0.349956,3.95726,0.0474205
0.349473,3.96097,0.047493
0.0773487,6.0559,0.0877132
0.0768652,6.05963,0.0877838
1.43348,-4.38232,-0.119493
1.43301,-4.37867,-0.119423
1.43253,-4.37503,-0.119354
1.42922,-4.34951,-0.11886
1.42875,-4.34587,-0.118795
1.42827,-4.34222,-0.118723
1.4278,-4.33858,-0.118652
1.42733,-4.33493,-0.118584
1.40412,-4.15627,-0.115158
1.40364,-4.15262,-0.115086
1.40317,-4.14897,-0.115013
1.4027,-4.14533,-0.114944
1.40222,-4.14168,-0.114874
1.40175,-4.13803,-0.114807
1.40128,-4.13439,-0.114735
1.4008,-4.13074,-0.114666
1.40033,-4.12709,-0.114594
1.39985,-4.12345,-0.114525
1.39938,-4.1198,-0.114456
1.39891,-4.11615,-0.114384
1.39843,-4.1125,-0.114315
1.39796,-4.10886,-0.114243
1.39749,-4.10521,-0.114174
1.39701,-4.10156,-0.114103
1.39654,-4.09792,-0.114037
1.39085,-4.05414,-0.113195
1.39038,-4.0505,-0.113125
1.3899,-4.04685,-0.113056
1.38943,-4.0432,-0.112984
1.38327,-3.99578,-0.112074
1.3828,-3.99213,-0.112005
1.38232,-3.98848,-0.111935
1.38185,-3.98483,-0.111864
1.38137,-3.98118,-0.111795
1.3809,-3.97754,-0.111723
1.36573,-3.86077,-0.109484
1.36526,-3.85713,-0.109415
1.35388,-3.76953,-0.107731
1.35341,-3.76588,-0.107662
1.35293,-3.76223,-0.107592
1.35246,-3.75858,-0.107523
1.35199,-3.75493,-0.107452
1.35151,-3.75128,-0.10738
1.35104,-3.74763,-0.107315
1.35056,-3.74398,-0.107246
1.35009,-3.74033,-0.107172
1.34962,-3.73668,-0.107103
1.34914,-3.73303,-0.107035
1.34867,-3.72938,-0.106964
1.34819,-3.72573,-0.106895
1.34772,-3.72208,-0.106821
0.383886,3.69792,0.0355778
0.383405,3.70163,0.0356483
0.382922,3.70534,0.0357208
0.382441,3.70906,0.0357914
0.358814,3.89093,0.0392838
0.358332,3.89465,0.0393543
0.357851,3.89836,0.0394249
0.357368,3.90207,0.0394955
0.34917,3.96519,0.0407085
0.348687,3.9689,0.0407791
0.348205,3.97262,0.0408497
0.347722,3.97633,0.0409222
0.0784473,6.04934,0.0807037
0.0779619,6.05307,0.0807762
1.43528,-4.39429,-0.126526
1.43481,-4.39065,-0.126457
1.43433,-4.387,-0.126387
1.42723,-4.33231,-0.12534
1.42676,-4.32867,-0.125271
1.42628,-4.32502,-0.1252
1.40639,-4.17186,-0.122261
1.40591,-4.16821,-0.122192
1.40544,-4.16456,-0.122124
1.40497,-4.16091,-0.122051
1.39644,-4.09525,-0.120792
1.39596,-4.09161,-0.120726
1.39549,-4.08796,-0.120651
1.39501,-4.08431,-0.120583
1.39454,-4.08066,-0.12051
1.39407,-4.07701,-0.120445
1.39359,-4.07336,-0.120371
1.39312,-4.06972,-0.120302
1.39264,-4.06607,-0.120232
1.39217,-4.06242,-0.120163
1.3917,-4.05877,-0.120094
1.3808,-3.97485,-0.118488
1.38033,-3.9712,-0.118416
1.37985,-3.96755,-0.118347
1.37938,-3.96391,-0.118273
1.36752,-3.87267,-0.116524
1.36705,-3.86902,-0.116453
1.36658,-3.86537,-0.116385
0.382143,3.71323,0.0290051
0.381661,3.71694,0.0290775
0.38118,3.72065,0.0291462
0.380698,3.72436,0.0292187
0.380216,3.72808,0.0292892
0.379733,3.73179,0.0293598
0.379251,3.7355,0.0294323
0.378769,3.73921,0.0295029
0.378288,3.74292,0.0295734
0.377805,3.74664,0.029644
0.377323,3.75035,0.0297165
0.376841,3.75406,0.0297871
0.376358,3.75777,0.0298576
0.375395,3.7652,0.0299988
0.374911,3.76891,0.0300732
0.374431,3.77262,0.0301418
0.373948,3.77633,0.0302143
0.373466,3.78004,0.0302868
0.372983,3.78376,0.0303574
0.372501,3.78747,0.0304279
0.372019,3.79118,0.0305004
0.371536,3.79489,0.030571
0.371055,3.79861,0.0306435
0.370573,3.80232,0.0307121
0.37009,3.80603,0.0307846
0.369608,3.80974,0.0308552
0.369125,3.81346,0.0309258
0.368643,3.81717,0.0309982
0.368161,3.82088,0.0310669
0.367678,3.82459,0.0311413
0.367195,3.82831,0.0312119
0.366713,3.83202,0.0312843
0.366231,3.83573,0.0313549
0.365749,3.83945,0.0314255
0.365267,3.84316,0.031496
0.364784,3.84687,0.0315685
0.364303,3.85058,0.0316391
0.36382,3.8543,0.0317097
0.363338,3.85801,0.0317802
0.362856,3.86172,0.0318508
0.362372,3.86544,0.0319252
0.36189,3.86915,0.0319977
0.361407,3.87286,0.0320683
0.360928,3.87658,0.032135
0.360445,3.88029,0.0322075
0.359962,3.884,0.03228
0.359479,3.88771,0.0323524
0.34742,3.98055,0.034132
0.346937,3.98427,0.0342045
0.346456,3.98798,0.0342731
0.345973,3.9917,0.0343456
0.320397,4.18858,0.0381241
0.319916,4.1923,0.0381927
0.319431,4.19602,0.0382671
0.318951,4.19973,0.0383339
0.318467,4.20345,0.0384083
0.317985,4.20716,0.0384808
0.308812,4.27777,0.039835
0.308331,4.28149,0.0399036
0.307848,4.2852,0.0399761
0.307364,4.28892,0.0400505
0.306883,4.29264,0.0401192
0.306399,4.29635,0.0401917
0.305916,4.30007,0.0402622
0.305433,4.30378,0.0403328
0.304951,4.3075,0.0404053
0.304468,4.31122,0.0404739
0.0935984,5.93459,0.0716171
0.0931129,5.93832,0.0716915
0.0926275,5.94205,0.0717621
0.092145,5.94578,0.0718327
0.0916605,5.94951,0.0719032
0.091176,5.95324,0.0719757
0.0906916,5.95697,0.0720482
0.0902061,5.9607,0.0721188
0.0897236,5.96443,0.0721893
0.0892382,5.96816,0.0722599
0.0795441,6.04277,0.0736961
0.0790606,6.0465,0.0737648
1.43755,-4.40992,-0.133636
1.43708,-4.40627,-0.133568
1.43661,-4.40263,-0.133499
1.43613,-4.39898,-0.13343
1.42619,-4.3224,-0.13196
1.42571,-4.31876,-0.131889
1.40866,-4.18745,-0.129372
1.40818,-4.1838,-0.129301
1.40771,-4.18015,-0.129232
1.40724,-4.17651,-0.129164
1.37927,-3.96122,-0.125032
1.37879,-3.95757,-0.124962
1.37832,-3.95392,-0.124893
1.37785,-3.95027,-0.124825
1.36931,-3.88457,-0.123566
1.36884,-3.88091,-0.123491
1.36836,-3.87726,-0.123421
0.376063,3.76195,0.0230656
0.34567,3.99593,0.0275536
0.345185,3.99964,0.0276279
0.344704,4.00335,0.0276985
0.336018,4.07023,0.0289803
0.335535,4.07394,0.0290508
0.335052,4.07766,0.0291214
0.33457,4.08137,0.0291939
0.334088,4.08509,0.0292625
0.333606,4.0888,0.029335
0.333123,4.09252,0.0294056
0.332639,4.09623,0.02948
0.332156,4.09995,0.0295506
0.331674,4.10367,0.029623
0.331192,4.10738,0.0296917
0.330709,4.1111,0.0297642
0.330226,4.11481,0.0298347
0.329743,4.11853,0.0299072
0.329261,4.12225,0.0299778
0.328779,4.12596,0.0300484
0.325399,4.15197,0.0305481
0.324917,4.15569,0.0306187
0.324433,4.1594,0.0306911
0.323951,4.16312,0.0307617
0.323469,4.16684,0.0308323
0.322986,4.17055,0.0309029
0.322504,4.17427,0.0309734
0.322021,4.17799,0.0310459
0.321538,4.1817,0.0311165
0.321056,4.18542,0.0311871
0.317677,4.21143,0.0316868
0.317193,4.21515,0.0317593
0.31671,4.21887,0.0318298
0.316226,4.22258,0.0319042
0.315745,4.2263,0.031971
0.315262,4.23002,0.0320454
0.314778,4.23373,0.0321159
0.314296,4.23745,0.0321884
0.313812,4.24117,0.032259
0.313331,4.24488,0.0323296
0.312848,4.2486,0.0324001
0.312366,4.25232,0.0324707
0.311883,4.25603,0.0325432
0.3114,4.25975,0.0326118
0.310918,4.26347,0.0326843
0.310434,4.26719,0.0327549
0.309953,4.2709,0.0328255
0.309469,4.27462,0.0328979
0.304156,4.31551,0.0336838
0.303674,4.31923,0.0337543
0.303191,4.32294,0.0338249
0.302709,4.32666,0.0338974
0.302225,4.33038,0.033968
0.0966387,5.91309,0.0643196
0.0961533,5.91682,0.0643921
0.0956678,5.92055,0.0644627
0.0951843,5.92428,0.0645332
0.0946999,5.92801,0.0646038
0.0942144,5.93174,0.0646782
0.0888834,5.97278,0.065464
0.0884008,5.97651,0.0655327
0.0879145,5.98024,0.0656071
0.087431,5.98397,0.0656776
0.0869465,5.9877,0.0657482
0.086462,5.99143,0.0658207
0.0859766,5.99516,0.0658932
0.0854921,5.9989,0.0659637
0.0816135,6.02875,0.0665379
0.0811291,6.03248,0.0666103
0.0806446,6.03621,0.0666809
0.0801611,6.03994,0.0667515
1.4493,-4.49848,-0.142147
1.44883,-4.49484,-0.142075
1.44835,-4.49119,-0.142006
1.44788,-4.48754,-0.141933
1.44741,-4.4839,-0.141867
1.44693,-4.48025,-0.141798
1.44646,-4.4766,-0.141729
1.44599,-4.47296,-0.141659
1.44551,-4.46931,-0.141586
1.44504,-4.46567,-0.14152
1.44457,-4.46202,-0.141447
1.44409,-4.45837,-0.141378
1.44362,-4.45473,-0.14131
1.44315,-4.45108,-0.141239
1.44267,-4.44743,-0.141171
1.4403,-4.4292,-0.140818
1.43983,-4.42555,-0.140749
1.43935,-4.42191,-0.140676
1.43888,-4.41826,-0.140608
1.43841,-4.41461,-0.140539
1.42562,-4.31614,-0.138653
1.42514,-4.31249,-0.138582
1.42467,-4.30884,-0.138512
1.4114,-4.2067,-0.136553
1.41093,-4.20305,-0.136484
1.41045,-4.1994,-0.136414
1.40998,-4.19575,-0.136343
1.4095,-4.1921,-0.136274
1.37774,-3.94758,-0.131584
1.37727,-3.94393,-0.131514
1.37679,-3.94028,-0.131445
1.37632,-3.93663,-0.131376
1.37063,-3.89282,-0.130537
1.37016,-3.88916,-0.130468
0.344402,4.00759,0.0209026
0.343919,4.0113,0.0209732
0.343436,4.01502,0.0210457
0.342954,4.01873,0.0211163
0.342472,4.02245,0.0211868
0.341988,4.02616,0.0212593
0.341505,4.02988,0.0213318
0.341022,4.0336,0.0214024
0.34054,4.03731,0.0214729
0.340057,4.04103,0.0215454
0.339574,4.04474,0.021616
0.339092,4.04846,0.0216866
0.33861,4.05218,0.0217571
0.338126,4.05589,0.0218296
0.337644,4.05961,0.0219002
0.337161,4.06332,0.0219707
0.336679,4.06704,0.0220432
0.328472,4.13022,0.0232525
0.32799,4.13393,0.023325
0.327507,4.13765,0.0233955
0.327024,4.14137,0.023468
0.326542,4.14508,0.0235367
0.326059,4.1488,0.0236092
0.301914,4.33467,0.0271721
0.301431,4.33839,0.0272446
0.300947,4.34211,0.0273151
0.0991936,5.8953,0.0570908
0.0987091,5.89903,0.0571613
0.0982246,5.90277,0.0572319
0.0977411,5.9065,0.0573025
0.0972548,5.91023,0.0573769
0.0851393,6.00352,0.0591621
0.0846529,6.00725,0.0592346
0.0841675,6.01098,0.0593071
0.0836849,6.01471,0.0593758
0.0831995,6.01845,0.0594482
0.0827141,6.02218,0.0595226
0.0822287,6.02591,0.0595932
1.45111,-4.51048,-0.149191
1.45063,-4.50684,-0.149118
1.45016,-4.50319,-0.14905
1.44258,-4.44484,-0.147932
1.4421,-4.44119,-0.147861
1.44163,-4.43754,-0.147795
1.44116,-4.4339,-0.147726
1.42457,-4.30622,-0.145271
1.4241,-4.30257,-0.145206
1.41414,-4.22595,-0.143738
1.41367,-4.2223,-0.143665
1.4132,-4.21865,-0.143597
1.41272,-4.215,-0.143528
1.41225,-4.21135,-0.143459
1.37621,-3.93393,-0.138142
1.37574,-3.93028,-0.138073
1.37527,-3.92663,-0.138
1.37479,-3.92298,-0.137932
1.37432,-3.91933,-0.137861
1.37384,-3.91567,-0.137791
1.37337,-3.91202,-0.137722
1.37289,-3.90837,-0.13765
1.37242,-3.90472,-0.137585
1.37194,-3.90107,-0.137512
1.37147,-3.89742,-0.137442
0.300635,4.34641,0.0205193
0.300152,4.35013,0.0205898
0.299669,4.35385,0.0206604
0.299186,4.35757,0.0207329
0.101268,5.88125,0.0499249
0.100782,5.88498,0.0499992
0.100298,5.88871,0.0500717
0.0998135,5.89244,0.0501404
1.45338,-4.52614,-0.156303
1.45291,-4.52249,-0.156235
1.45244,-4.51884,-0.156166
1.45196,-4.51519,-0.156092
1.424,-4.29995,-0.151974
1.42353,-4.2963,-0.151901
1.42305,-4.29265,-0.151833
1.42258,-4.289,-0.151762
1.42211,-4.28535,-0.151693
1.42163,-4.2817,-0.151619
1.42116,-4.27805,-0.151554
1.42068,-4.2744,-0.151482
1.42021,-4.27075,-0.151413
1.41973,-4.26711,-0.151346
1.41926,-4.26346,-0.151274
1.41879,-4.25981,-0.151205
1.41831,-4.25616,-0.151134
1.41784,-4.25251,-0.151066
1.41737,-4.24886,-0.150995
1.41689,-4.24521,-0.150923
1.41642,-4.24156,-0.150858
1.41594,-4.23791,-0.150784
1.41547,-4.23426,-0.150715
1.415,-4.23061,-0.150646
0.298875,4.36187,0.0139313
0.298391,4.36559,0.0140018
0.264074,4.62978,0.019062
0.263591,4.6335,0.0191345
0.263107,4.63722,0.0192051
0.262624,4.64094,0.0192757
0.26214,4.64467,0.0193481
0.261656,4.64839,0.0194206
0.261172,4.65211,0.0194912
0.260689,4.65583,0.0195637
0.260206,4.65955,0.0196342
0.259723,4.66328,0.0197048
0.259238,4.667,0.0197773
0.258755,4.67072,0.0198479
0.241346,4.80475,0.0224152
0.240863,4.80847,0.0224857
0.240378,4.8122,0.0225563
0.239895,4.81592,0.0226288
0.239412,4.81964,0.0226994
0.238928,4.82337,0.0227699
0.238445,4.82709,0.0228405
0.237961,4.83081,0.0229111
0.237478,4.83454,0.0229836
0.236993,4.83826,0.0230579
0.23651,4.84198,0.0231266
0.236025,4.84571,0.0231991
0.235542,4.84943,0.0232697
0.235059,4.85316,0.0233402
0.182794,5.25552,0.0310478
0.18231,5.25924,0.0311203
0.181827,5.26297,0.031189
0.181342,5.2667,0.0312614
0.180858,5.27042,0.031332
0.180374,5.27415,0.0314026
0.179889,5.27788,0.031477
0.179404,5.28161,0.0315495
0.178921,5.28533,0.0316181
0.178436,5.28906,0.0316906
0.177953,5.29279,0.0317612
0.10431,5.85972,0.0426216
0.103827,5.86346,0.0426922
0.10334,5.86719,0.0427647
0.102857,5.87092,0.0428333
0.10237,5.87465,0.0429077
0.101887,5.87838,0.0429783
1.45519,-4.53815,-0.163351
1.45471,-4.5345,-0.163282
1.45424,-4.53085,-0.163216
0.298079,4.36989,0.00719833
0.297595,4.37361,0.00727081
0.297111,4.37733,0.00734329
0.280196,4.50758,0.00983429
0.27971,4.5113,0.00990677
0.279226,4.51502,0.00997925
0.278743,4.51874,0.0100498
0.278259,4.52246,0.0101223
0.277777,4.52619,0.0101929
0.277293,4.52991,0.0102634
0.27681,4.53363,0.0103359
0.276326,4.53735,0.0104065
0.275843,4.54107,0.0104771
0.27536,4.5448,0.0105476
0.274876,4.54852,0.0106182
0.267139,4.60807,0.0117607
0.266655,4.6118,0.0118332
0.266172,4.61552,0.0119019
0.265689,4.61924,0.0119743
0.265205,4.62297,0.0120449
0.264722,4.62669,0.0121155
0.258436,4.67509,0.0130405
0.257951,4.67881,0.0131149
0.257467,4.68253,0.0131874
0.256984,4.68626,0.0132561
0.2565,4.68998,0.0133286
0.243441,4.79052,0.015255
0.242957,4.79424,0.0153255
0.242473,4.79797,0.0153961
0.241989,4.80169,0.0154686
0.234733,4.85756,0.0165367
0.234249,4.86128,0.0166092
0.233766,4.86501,0.0166798
0.233282,4.86873,0.0167503
0.232799,4.87245,0.0168209
0.232315,4.87618,0.0168915
0.231831,4.8799,0.016964
0.185848,5.2339,0.0237427
0.185364,5.23763,0.0238132
0.18488,5.24135,0.0238838
0.184397,5.24508,0.0239544
0.183912,5.24881,0.0240269
0.183429,5.25254,0.0240974
0.177615,5.29727,0.0249557
0.177132,5.301,0.0250282
0.176647,5.30473,0.0250988
0.150492,5.5061,0.0289516
0.108324,5.83073,0.0351696
0.10784,5.83446,0.0352402
0.107353,5.83819,0.0353127
0.10687,5.84192,0.0353813
0.106383,5.84566,0.0354557
0.105899,5.84939,0.0355263
0.105414,5.85312,0.0355988
0.10493,5.85685,0.0356674
1.45984,-4.57205,-0.17082
1.45936,-4.5684,-0.170752
1.45889,-4.56475,-0.170681
