0.307654,5.86974,-0.0609455
0.299215,5.95729,-0.0633526
-0.218892,6.78278,0.527271
1.27227,-4.13556,0.2076
1.26607,-4.07122,0.205826
1.2509,-3.91382,0.201488
1.24021,-3.80283,0.198431
1.23054,-3.70252,0.195667
1.21291,-3.51964,0.190634
1.21049,-3.49452,0.189941
1.21014,-3.49093,0.189846
1.19284,-3.31139,0.1849
1.19076,-3.28983,0.184305
1.17482,-3.12446,0.17975
1.16303,-3.00211,0.17638
1.0729,-2.06697,0.150625
1.01556,-1.47194,0.134239
0.987503,-1.18087,0.126221
0.292248,1.25293,0.703682
0.744448,1.34099,0.0567684
0.729818,1.49277,0.0525913
0.729105,1.50018,0.0523853
0.72732,1.5187,0.0518761
0.722677,1.56686,0.0505524
0.722321,1.57057,0.0504475
0.721964,1.57427,0.0503426
0.721607,1.57798,0.0502415
0.718035,1.61504,0.049221
0.715891,1.63728,0.0486088
0.715178,1.6447,0.0484047
0.254321,1.66346,0.690083
0.476809,4.11792,-0.0197086
0.457563,4.31759,-0.0252056
0.423739,4.66856,-0.034874
0.416455,4.74413,-0.0369549
0.416091,4.74791,-0.0370579
0.413543,4.77437,-0.0377903
0.410627,4.80462,-0.0386219
0.404066,4.87269,-0.0404968
0.395312,4.9635,-0.0429935
0.394582,4.97107,-0.0432034
0.355866,5.37279,-0.0542679
0.346354,5.47147,-0.0569859
0.318153,5.76409,-0.0650463
0.314118,5.80594,-0.0661964
0.298711,5.96582,-0.0705986
1.25165,-3.91836,0.194815
1.23059,-3.69985,0.188793
1.21469,-3.53487,0.184242
1.20777,-3.46309,0.182268
1.16029,-2.97049,0.168688
1.13563,-2.71459,0.16164
1.11615,-2.51246,0.156067
1.1158,-2.50885,0.155966
1.07571,-2.09293,0.144503
1.06,-1.92988,0.140011
1.03132,-1.63234,0.131805
0.99733,-1.27964,0.122087
0.268541,1.51213,0.688459
0.265544,1.54456,0.687386
0.261214,1.59142,0.685835
0.0561352,3.81118,0.612259
0.456369,4.33327,-0.0326157
0.441098,4.49172,-0.0369835
0.432727,4.57855,-0.0393753
0.418527,4.72591,-0.043438
0.395196,4.96801,-0.0501156
0.380593,5.11951,-0.054287
0.376575,5.16119,-0.0554371
0.374747,5.18014,-0.0559578
0.344762,5.49128,-0.0645332
0.329381,5.65087,-0.0689354
0.313983,5.81063,-0.0733356
-0.20342,6.62056,0.51914
-0.208247,6.67283,0.517406
-0.211698,6.71017,0.516171
1.29374,-4.35192,0.199972
1.26135,-4.01595,0.190708
1.22476,-3.63622,0.180231
1.20851,-3.46755,0.175577
1.18253,-3.19803,0.168146
1.18218,-3.19443,0.168047
1.1749,-3.11888,0.16596
1.1214,-2.56372,0.150648
1.11722,-2.52038,0.14945
1.09632,-2.3035,0.143469
1.09597,-2.29988,0.143372
0.607988,-2.15946,0.803606
1.08306,-2.16598,0.139679
0.580702,-1.86411,0.793808
1.03554,-1.67283,0.126072
1.01311,-1.44022,0.119659
1.00681,-1.37474,0.117851
0.975914,-1.05421,0.109011
0.392057,0.177783,0.726084
0.262115,1.58428,0.679428
0.261114,1.5951,0.679075
0.257449,1.63477,0.677757
0.435892,4.54898,-0.0455475
0.382663,5.1013,-0.0607834
0.382297,5.10509,-0.0608883
0.381568,5.11267,-0.0610981
0.381201,5.11646,-0.0611992
0.366949,5.26434,-0.065279
0.364389,5.29089,-0.0660114
0.362927,5.30607,-0.066431
0.357442,5.36299,-0.0680027
0.35415,5.39716,-0.0689449
0.346097,5.4807,-0.071249
0.333277,5.6137,-0.0749149
0.329248,5.65553,-0.0760708
0.292925,6.03242,-0.0864677
-0.20465,6.63652,0.511856
1.30481,-4.46362,0.196259
1.2483,-3.87729,0.180077
1.20924,-3.47202,0.168892
1.18049,-3.17367,0.160652
1.13395,-2.6908,0.147322
1.11446,-2.48856,0.141739
1.08239,-2.15575,0.132549
1.08169,-2.14851,0.132351
1.0789,-2.11953,0.131554
1.03274,-1.64068,0.118336
1.03134,-1.62614,0.117935
1.01803,-1.48801,0.11412
0.53244,-1.33918,0.769829
0.990667,-1.20409,0.106281
0.26068,1.60238,0.672192
0.479044,4.10452,-0.040266
0.440878,4.50052,-0.0511971
0.413925,4.7802,-0.058918
0.357312,5.36759,-0.0751305
0.351093,5.43214,-0.0769157
0.325449,5.69822,-0.0842609
0.321781,5.73627,-0.0853119
1.28973,-4.30398,0.185057
1.2725,-4.12524,0.180119
1.21379,-3.51599,0.163288
1.19821,-3.35432,0.158821
1.1774,-3.1385,0.152861
1.17012,-3.06289,0.15077
1.13468,-2.69514,0.140612
1.12563,-2.60126,0.138016
1.10299,-2.36632,0.131525
1.10264,-2.3627,0.131424
1.06843,-2.00781,0.121622
1.03205,-1.63031,0.111191
0.259913,1.61328,0.665186
0.476037,4.13898,-0.0481987
0.44259,4.48604,-0.0577888
0.411986,4.80358,-0.0665607
0.388263,5.04973,-0.0733604
0.371088,5.22795,-0.0782852
0.361212,5.33041,-0.0811138
0.343641,5.51274,-0.086153
0.343276,5.51654,-0.0862598
0.33668,5.58497,-0.08815
0.326416,5.69147,-0.0910912
0.326049,5.69528,-0.0911961
0.314311,5.81708,-0.0945625
0.306603,5.89707,-0.0967731
0.300726,5.95803,-0.0984554
1.2698,-4.09404,0.172457
1.24495,-3.83619,0.165323
1.23701,-3.75373,0.163044
1.2332,-3.71428,0.161955
1.20102,-3.38034,0.152718
1.18057,-3.16811,0.146851
1.16148,-2.97002,0.141375
1.15627,-2.91595,0.139881
1.15592,-2.91234,0.139778
1.1521,-2.87268,0.138681
1.11033,-2.43933,0.126701
1.09569,-2.28738,0.122499
1.07405,-2.0628,0.116289
1.06111,-1.92862,0.112579
1.0212,-1.51449,0.10113
0.401732,0.0807882,0.709476
0.527428,3.60898,-0.0405273
0.392892,5.00498,-0.0791283
0.368039,5.26287,-0.0862598
0.295443,6.01613,-0.107084
-0.216632,6.77414,0.487001
-0.216979,6.77788,0.486877
1.29571,-4.35964,0.172993
1.28985,-4.29889,0.17131
1.2802,-4.19878,0.168543
1.27814,-4.17732,0.16795
1.27745,-4.17017,0.167749
0.783024,-4.04388,0.840054
1.27607,-4.15586,0.167355
1.26503,-4.04133,0.164185
1.25468,-3.93389,0.161211
1.20487,-3.41715,0.146915
1.13683,-2.71105,0.127373
1.13613,-2.70383,0.127176
1.13578,-2.70022,0.127077
0.629929,-2.3867,0.784931
1.10513,-2.38214,0.118277
1.06777,-1.99451,0.10755
0.502874,-1.01143,0.739189
0.138457,2.93316,0.60799
0.344481,5.51059,-0.100126
-0.212686,6.73406,0.481565
1.2968,-4.36783,0.166414
1.29336,-4.33209,0.165424
1.25956,-3.98143,0.155718
1.25818,-3.9671,0.155319
1.20076,-3.37127,0.138821
1.19209,-3.28134,0.136328
1.12711,-2.60702,0.117653
1.11352,-2.46602,0.113752
0.258279,1.63877,0.644386
-0.191136,6.50344,0.482473
1.30857,-4.48676,0.162905
1.20358,-3.3973,0.132711
1.1588,-2.9327,0.119837
1.15081,-2.84972,0.117537
0.379737,5.15131,-0.104208
0.375349,5.19686,-0.105473
0.35741,5.38297,-0.110626
-0.16617,6.23582,0.484621
-0.208937,6.69876,0.4692
-0.209627,6.70624,0.468952
-0.210318,6.71372,0.468702
1.30588,-4.45568,0.155237
1.30554,-4.4521,0.155138
1.30244,-4.41995,0.154245
1.28004,-4.18749,0.147797
1.27969,-4.18392,0.147699
1.27693,-4.15528,0.146908
1.23963,-3.76821,0.136168
1.21194,-3.48087,0.128201
1.18801,-3.23262,0.121313
1.1842,-3.19301,0.120214
1.15536,-2.89378,0.111916
1.14179,-2.75299,0.108009
1.13762,-2.70964,0.106808
0.530205,-1.29954,0.729013
0.298054,1.21338,0.645258
-0.206025,6.66988,0.46339
1.28665,-4.25292,0.142796
1.28113,-4.19566,0.141211
1.25455,-3.91981,0.133551
1.22722,-3.63629,0.125683
0.341809,0.742338,0.65432
0.375465,5.20218,-0.119656
0.350195,5.46444,-0.126938
0.328186,5.69283,-0.13328
0.307614,5.90629,-0.139202
0.305408,5.92917,-0.139835
1.29878,-4.37557,0.139385
1.28947,-4.27899,0.136703
1.21342,-3.48982,0.114784
1.18219,-3.16583,0.105782
1.14708,-2.80144,0.0956573
0.655729,-2.65319,0.761011
0.296538,1.235,0.631233
-0.0507717,4.99459,0.505751
-0.208838,6.70562,0.448645
-0.212641,6.74678,0.447269
1.28021,-4.17977,0.127129
1.26986,-4.07231,0.124142
1.25742,-3.94325,0.120554
1.2145,-3.49789,0.10817
1.17216,-3.05848,0.095953
1.17077,-3.04406,0.0955486
0.574467,-1.771,0.724981
0.290449,1.30349,0.622293
0.408869,4.86216,-0.124254
-0.175886,6.35158,0.453686
1.28545,-4.23092,0.121725
1.2592,-3.95856,0.114149
1.23845,-3.7432,0.108158
1.20831,-3.43041,0.099453
1.19964,-3.34041,0.0969505
1.17567,-3.09175,0.0900307
1.16976,-3.03042,0.0883255
0.643366,-2.51425,0.743237
1.11473,-2.45931,0.0724335
0.239624,1.85628,0.597157
0.351642,5.45927,-0.147888
-0.0908031,5.43318,0.477606
0.324479,5.74116,-0.155733
0.297636,6.01971,-0.163483
-0.182977,6.43098,0.444254
-0.185047,6.4534,0.443504
-0.188501,6.49077,0.442259
1.28241,-4.19612,0.113932
1.26134,-3.97746,0.107841
1.25926,-3.95594,0.107243
1.25753,-3.938,0.106745
0.753168,-3.7003,0.776331
1.243,-3.78723,0.102543
1.22638,-3.61475,0.0977421
1.19551,-3.29444,0.0888233
1.18961,-3.23318,0.0871162
0.569174,-1.70854,0.709715
0.35673,0.591185,0.632797
0.225466,2.01217,0.585266
0.213406,2.14271,0.580904
-0.0800085,5.31898,0.474667
0.342706,5.55528,-0.157597
1.26346,-3.99637,0.101538
1.23301,-3.68037,0.0927296
1.20736,-3.41415,0.0853119
1.16114,-2.93453,0.0719471
0.506994,-1.03286,0.680506
0.351753,5.46471,-0.162117
-0.195796,6.57504,0.425871
1.24345,-3.78551,0.0888195
1.23791,-3.72802,0.0872154
1.20046,-3.33937,0.076376
0.702221,-3.14366,0.744591
0.208489,2.20114,0.565578
-0.217094,6.80823,0.411274
1.2241,-3.58148,0.0762806
1.22202,-3.55989,0.0756817
1.19495,-3.27895,0.0678387
1.16991,-3.01916,0.0605907
0.553381,-1.52984,0.683935
0.326598,0.925171,0.601652
-0.189964,6.51721,0.414228
-0.194112,6.56211,0.412724
-0.200683,6.63322,0.410343
-0.203104,6.65943,0.409464
1.27884,-4.14638,0.0852108
1.26847,-4.03877,0.0822048
1.26674,-4.02083,0.081707
1.26571,-4.01006,0.0814037
1.26432,-3.9957,0.0810032
1.22276,-3.56439,0.0689545
1.15951,-2.90795,0.0506172
0.67178,-2.80902,0.720234
0.264515,1.59987,0.572361
0.248467,1.77358,0.566536
-0.199148,6.61927,0.404015
-0.205377,6.68668,0.401754
1.29756,-4.33736,0.0837078
1.29721,-4.33377,0.0836105
1.29687,-4.33019,0.0835075
1.28685,-4.22627,0.0806046
1.28167,-4.17249,0.0791035
1.21934,-3.52568,0.0610199
0.283781,1.39389,0.572596
0.253049,1.72661,0.561426
0.231627,1.95851,0.553642
0.0786676,3.6144,0.498066
0.0216179,4.23199,0.477341
-0.18828,6.50425,0.401079
1.31142,-4.47806,0.0808067
1.30797,-4.44226,0.0798073
1.11072,-2.39523,0.0225334
0.302361,1.19535,0.572586
0.294028,1.28558,0.569553
0.212072,2.17281,0.539753
0.354782,5.44975,-0.196936
1.29699,-4.3251,0.0696831
1.25307,-3.86928,0.0569248
1.22221,-3.54906,0.0479603
0.45802,-0.487166,0.622456
0.438239,-0.27302,0.615257
-0.203889,6.67856,0.381622
-0.20562,6.6973,0.380993
1.30603,-4.41572,0.0653801
1.29532,-4.30462,0.0622711
1.25278,-3.86305,0.0498962
1.23059,-3.63279,0.0434456
1.22781,-3.60398,0.0426388
1.22643,-3.58958,0.0422306
0.718306,-3.3024,0.710499
0.439494,-0.284011,0.608982
1.29228,-4.26979,0.0544453
1.27257,-4.06523,0.048708
1.25283,-3.8604,0.0429649
1.20007,-3.31287,0.0276108
0.678169,-2.86534,0.689213
0.399103,0.155848,0.587534
0.297417,1.25673,0.55048
0.227177,2.01715,0.524885
-0.0973434,5.53041,0.406649
-0.209131,6.74063,0.365917
-0.211557,6.76689,0.365036
1.30547,-4.40349,0.0513439
1.29683,-4.31386,0.04883
1.27782,-4.1165,0.0432911
1.27159,-4.05185,0.0414791
1.26466,-3.97999,0.0394592
0.38644,0.295517,0.576174
0.214986,2.15172,0.513655
-0.138131,5.97464,0.384901
-0.190284,6.53924,0.365887
-0.194092,6.58046,0.3645
-0.198938,6.63293,0.362734
1.30622,-4.40812,0.0446262
0.395647,0.198486,0.572771
0.261807,1.64746,0.523939
0.14417,2.92102,0.48102
-0.169381,6.3156,0.366615
-0.184595,6.48031,0.361063
-0.192208,6.56274,0.358286
-0.203982,6.69021,0.353989
1.29488,-4.28722,0.0343742
1.28312,-4.16518,0.0309448
1.23981,-3.71567,0.0183086
1.23461,-3.66164,0.0167904
0.526127,-1.21155,0.613663
0.524158,-1.19024,0.612944
0.32248,0.993211,0.539305
0.0841465,3.57349,0.452282
0.0164785,4.30608,0.427578
-0.071764,5.26141,0.395359
-0.126779,5.85703,0.375273
1.26691,-3.9937,0.0192585
1.25235,-3.84261,0.0150089
1.23917,-3.70579,0.0111618
0.652128,-2.5731,0.652979
0.518858,-1.13027,0.604284
0.347691,0.722859,0.541744
0.264951,1.61864,0.511513
0.0456171,3.99324,0.431374
0.010869,4.36943,0.418678
-0.187751,6.51979,0.346106
1.30953,-4.4328,0.0247536
1.29812,-4.31441,0.0214233
1.26073,-3.92633,0.0104961
0.628681,-2.31667,0.637712
0.609453,-2.10851,0.630686
0.465506,-0.550059,0.578051
0.398075,0.179984,0.553396
0.124188,3.14523,0.453253
-0.187251,6.51705,0.339378
1.31892,-4.52708,0.0205517
1.293,-4.258,0.0129681
1.21808,-3.48045,-0.00893784
0.59996,-2.00315,0.620504
0.3042,1.19895,0.512285
0.1457,2.91499,0.45429
0.124737,3.14193,0.446623
-0.204772,6.70939,0.326061
1.31657,-4.49947,0.0129089
1.31622,-4.49588,0.0128117
1.30447,-4.37391,0.0093689
0.790499,-4.06346,0.683556
0.679993,-2.86707,0.643097
0.50359,-0.957204,0.578508
0.454168,-0.422103,0.56041
0.257282,1.70953,0.488319
0.236492,1.93462,0.480707
-0.19041,6.55657,0.3244
-0.19526,6.60909,0.322622
-0.195954,6.61659,0.322371
1.30454,-4.37137,0.00242996
1.29623,-4.28519,0
0.728567,-3.39039,0.6542
-0.188525,6.53882,0.318174
1.29837,-4.30418,-0.0063343
1.24082,-3.7068,-0.0232048
0.725327,-3.35272,0.646324
0.579596,-1.77491,0.592896
0.576324,-1.73949,0.591696
0.510723,-1.02923,0.567642
0.400434,0.164858,0.527203
0.373217,0.459549,0.517223
0.254396,1.74601,0.473656
-0.185946,6.51357,0.312201
-0.192185,6.58111,0.309916
-0.193571,6.59613,0.309404
1.3102,-4.42372,-0.00982857
1.30605,-4.38064,-0.0110474
0.655245,-2.59136,0.613926
0.524479,-1.17556,0.565947
0.403678,0.132351,0.521624
-0.19238,6.58589,0.302919
-0.193769,6.6009,0.302414
-0.195154,6.61592,0.301905
1.26176,-3.91771,-0.0310154
1.18591,-3.13048,-0.0532799
0.542162,-1.36444,0.565701
0.447971,-0.344604,0.531115
0.301734,1.23873,0.477419
0.270282,1.57927,0.465868
0.261568,1.67361,0.462673
0.132896,3.06676,0.415426
-0.200205,6.67329,0.293121
0.766665,-3.79258,0.641451
0.716236,-3.24656,0.622917
0.490156,-0.798742,0.539848
0.294283,1.322,0.467882
0.0920811,3.5113,0.393585
-0.0272999,4.80388,0.349722
-0.196933,6.64051,0.287395
1.31732,-4.48794,-0.0286388
0.653875,-2.56879,0.593294
0.647362,-2.49828,0.590899
0.578794,-1.75584,0.565683
0.549295,-1.43646,0.554838
0.491419,-0.809819,0.53356
0.292851,1.34014,0.460548
0.244588,1.8627,0.442802
0.0674686,3.78043,0.377678
0.0286217,4.20104,0.363396
-0.188107,6.54764,0.283707
-0.2006,6.68288,0.279116
0.81885,-4.35245,0.647276
0.675323,-2.79843,0.594467
0.66622,-2.69985,0.591116
0.309143,1.16636,0.459736
0.302123,1.24237,0.457151
0.248512,1.82283,0.437426
0.244485,1.86646,0.435944
-0.189691,6.56744,0.276196
-0.201141,6.69144,0.271978
0.773121,-3.85474,0.623762
0.718798,-3.26655,0.603762
0.450363,-0.360081,0.504925
0.433153,-0.173751,0.49859
0.274912,1.53963,0.440325
0.243707,1.8775,0.428833
0.216806,2.16877,0.418926
0.21647,2.17242,0.418802
-0.195785,6.6361,0.267015
-0.198215,6.66241,0.266121
1.28876,-4.1819,-0.0579758
0.789892,-4.03377,0.623253
0.761499,-3.72631,0.612785
0.754389,-3.64934,0.61017
0.744041,-3.53731,0.606358
0.74016,-3.49528,0.604927
0.725267,-3.33403,0.599442
0.50444,-0.942981,0.518076
0.377992,0.426157,0.471483
0.377327,0.43336,0.471237
0.297923,1.2931,0.441982
0.272468,1.56873,0.432602
0.271796,1.57599,0.432356
0.267101,1.62682,0.430626
-0.0320578,4.866,0.3204
-0.0856733,5.44653,0.300646
-0.139503,6.02939,0.280809
-0.175509,6.41925,0.267546
0.665508,-2.68439,0.570704
0.649225,-2.50807,0.564695
0.631617,-2.3174,0.558203
0.551748,-1.45264,0.528757
0.452222,-0.374992,0.492062
0.418768,-0.0127617,0.479727
0.370591,0.508882,0.461964
0.364267,0.577377,0.459629
0.303852,1.23152,0.437353
0.292474,1.35474,0.433155
-0.167382,6.33391,0.263605
-0.177782,6.44652,0.259769
1.32181,-4.51844,-0.0621986
0.554991,-1.48513,0.523199
0.409076,0.0948015,0.469364
0.40177,0.173899,0.466669
0.36585,0.562834,0.453417
0.0613136,3.86032,0.341047
0.650482,-2.5165,0.551702
0.475244,-0.619032,0.487001
0.404688,0.144934,0.460949
0.283571,1.45638,0.416231
0.262773,1.68157,0.408552
0.252698,1.79066,0.404831
0.135944,3.05488,0.361721
-0.0297966,4.8495,0.300526
-0.158058,6.2383,0.25317
-0.178165,6.45603,0.245745
-0.200043,6.6929,0.237669
0.606695,-2.03979,0.528793
0.520046,-1.10155,0.496778
0.259986,1.71439,0.40069
0.136495,3.05155,0.355061
-0.15201,6.17549,0.248463
-0.194331,6.63374,0.232828
-0.194677,6.6375,0.232697
-0.196415,6.65631,0.232056
0.738838,-3.46804,0.570904
0.396235,0.241707,0.444229
0.372942,0.493934,0.435617
0.370943,0.515574,0.434877
0.255517,1.76541,0.3922
0.250813,1.81636,0.390461
0.242405,1.90738,0.387354
0.216145,2.19175,0.377642
0.170232,2.68891,0.360664
0.111935,3.32014,0.339113
-0.153581,6.19519,0.240938
-0.192441,6.61596,0.226572
1.30856,-4.36805,-0.0940742
0.809912,-4.23506,0.590485
0.633442,-2.32419,0.52519
0.532461,-1.23076,0.487831
0.470441,-0.559192,0.464882
0.436006,-0.186321,0.452141
0.362197,0.612885,0.424833
0.327477,0.988828,0.411989
0.32681,0.996067,0.411739
0.257095,1.75096,0.385942
0.111803,3.32422,0.332186
0.00606728,4.46915,0.293062
-0.0481462,5.05619,0.273005
0.647129,-2.46979,0.523512
0.630148,-2.28593,0.517225
0.419348,-0.00334012,0.43918
0.369452,0.536968,0.420702
0.256322,1.76198,0.378817
0.254305,1.78382,0.378067
0.152386,2.88742,0.340334
0.027132,4.24371,0.293957
-0.0428114,5.00107,0.268063
-0.148412,6.14455,0.22896
-0.158811,6.25714,0.225113
-0.176157,6.44499,0.218689
0.820238,-4.34172,0.580914
0.350691,0.742733,0.406937
0.328641,0.981504,0.398767
0.0194559,4.32949,0.28421
-0.0429745,5.00551,0.261076
-0.0863667,5.47537,0.245001
-0.188508,6.58141,0.207157
0.739462,-3.46446,0.54426
0.41755,0.0213869,0.424904
0.408579,0.118545,0.421574
0.389949,0.320269,0.414667
0.381956,0.406809,0.411705
0.375958,0.471748,0.409481
0.368625,0.551159,0.406763
0.363957,0.601715,0.405031
0.222108,2.13772,0.352442
0.0875893,3.59437,0.302563
-0.128004,5.92892,0.222628
-0.174457,6.43194,0.205402
-0.175498,6.44322,0.205015
-0.178277,6.47331,0.203987
-0.178624,6.47707,0.203857
-0.182794,6.52222,0.202312
-0.18905,6.58996,0.199991
0.811556,-4.24254,0.564281
0.792519,-4.0364,0.557222
0.686829,-2.89192,0.518007
0.546101,-1.36803,0.465792
0.537544,-1.27536,0.462616
0.535568,-1.25397,0.461884
0.461596,-0.452968,0.434441
0.450994,-0.338171,0.430506
0.402519,0.186765,0.412518
0.359539,0.652186,0.396568
0.299665,1.30052,0.374357
0.277186,1.54395,0.366016
0.235819,1.99191,0.350666
0.202765,2.34983,0.338404
0.154049,2.87736,0.320326
0.15066,2.91407,0.319069
-0.18125,6.50817,0.195921
0.768604,-3.77484,0.541626
0.758894,-3.66969,0.538019
0.589428,-1.83458,0.4751
0.569733,-1.6213,0.467787
0.565132,-1.57149,0.466078
0.505184,-0.922353,0.443823
0.464849,-0.485553,0.428844
0.438662,-0.201992,0.419123
0.415084,0.0533354,0.410368
0.396124,0.258647,0.403328
0.352447,0.731623,0.387112
0.245815,1.88629,0.347521
0.242111,1.9264,0.346146
0.239755,1.95193,0.34527
0.139002,3.04296,0.307861
0.068222,3.80939,0.281584
-0.0517263,5.10829,0.237047
-0.0848141,5.46659,0.22476
-0.149157,6.16333,0.200872
-0.151931,6.19337,0.199842
-0.179008,6.4866,0.189785
-0.181441,6.51295,0.188883
0.648314,-2.46965,0.490208
0.626741,-2.23603,0.482191
0.547329,-1.37612,0.45269
0.545355,-1.35473,0.451956
0.46545,-0.489454,0.422268
0.394385,0.280103,0.395863
0.381726,0.417187,0.391159
0.353032,0.727917,0.380495
0.312888,1.16262,0.365582
0.299479,1.30782,0.360601
0.249415,1.84996,0.341999
0.23156,2.0433,0.335367
0.0123415,4.41718,0.253916
-0.162528,6.31081,0.188944
-0.175727,6.45374,0.184038
-0.181984,6.52149,0.181715
0.645025,-2.43141,0.482225
0.575569,-1.67928,0.456402
0.548603,-1.38729,0.446379
0.506403,-0.930297,0.430689
0.460752,-0.435954,0.413715
0.434879,-0.155784,0.404097
0.304082,1.26062,0.355465
0.298045,1.326,0.353218
0.293682,1.37323,0.351599
0.284617,1.47139,0.34823
0.283946,1.47866,0.34798
0.25537,1.78811,0.337353
0.253688,1.80634,0.336727
0.232127,2.03981,0.328712
0.155713,2.86729,0.300301
0.0549641,3.95829,0.262842
-0.00461578,4.60348,0.24069
-0.15994,6.28547,0.18294
-0.170359,6.39829,0.179066
-0.179394,6.49615,0.175703
1.30631,-4.31876,-0.15081
0.731646,-3.36684,0.507698
0.634535,-2.31525,0.471567
0.628647,-2.25148,0.469378
0.565668,-1.56948,0.445942
0.523512,-1.11299,0.430262
0.403893,0.182398,0.385752
0.384905,0.38801,0.378689
0.378237,0.460225,0.376207
0.352865,0.734974,0.366768
0.310694,1.19164,0.351076
0.303988,1.26426,0.348583
0.295265,1.35873,0.345339
0.293252,1.38053,0.344587
0.114148,3.32004,0.27795
0.0841751,3.64461,0.2668
0.0520859,3.99212,0.25486
-0.158739,6.27515,0.176416
-0.162907,6.32028,0.174868
-0.169161,6.38799,0.172543
-0.179587,6.50092,0.168659
-0.179935,6.50468,0.168531
-0.181326,6.51975,0.168013
0.640398,-2.37611,0.466984
0.589285,-1.82262,0.447954
0.537315,-1.25982,0.428602
0.511911,-0.984741,0.419147
0.407483,0.146158,0.38026
0.312615,1.17349,0.344942
0.309934,1.20253,0.343941
0.262233,1.71907,0.326185
0.254828,1.79927,0.323425
0.160893,2.81649,0.288454
0.105166,3.41996,0.267706
0.0796041,3.69678,0.258186
-0.00561619,4.61963,0.22646
-0.0937977,5.57458,0.193626
-0.156845,6.25732,0.170153
0.758886,-3.65663,0.504358
0.613525,-2.0825,0.450205
0.58334,-1.75561,0.438955
0.572166,-1.63461,0.434792
0.402749,0.200046,0.37167
0.287688,1.44607,0.328802
0.262133,1.72281,0.319281
0.257419,1.77385,0.317526
0.255399,1.79573,0.316772
0.245629,1.90153,0.313133
0.156022,2.8719,0.279747
0.106396,3.40932,0.261257
0.105032,3.42407,0.260752
-0.0822248,5.45194,0.190979
-0.14523,6.13422,0.167507
-0.170236,6.40503,0.15819
-0.184497,6.55945,0.152876
0.703005,-3.0489,0.476789
0.678238,-2.7807,0.467558
0.612841,-2.07246,0.443172
0.610872,-2.05116,0.442438
0.594797,-1.87708,0.436443
0.570154,-1.61021,0.427254
0.54052,-1.2893,0.416208
0.488998,-0.731343,0.396997
0.384676,0.398387,0.358105
0.28087,1.52254,0.319401
0.276163,1.57352,0.317644
0.264724,1.69739,0.313379
0.246873,1.89071,0.306725
0.246535,1.89436,0.306599
0.23777,1.98929,0.303331
0.104898,3.42818,0.253794
0.103538,3.44293,0.253283
0.0653257,3.85673,0.239038
0.0304308,4.23462,0.226028
-0.153399,6.22539,0.157488
-0.153747,6.22915,0.157356
-0.173905,6.44744,0.149845
-0.186083,6.57932,0.145302
0.653402,-2.50913,0.451527
0.562218,-1.52165,0.417503
0.416587,0.055431,0.363173
0.394273,0.297113,0.354843
0.393938,0.300723,0.354721
0.378593,0.466895,0.348995
0.377259,0.481354,0.348495
0.352534,0.749106,0.339273
0.331783,0.973824,0.33153
0.298918,1.32974,0.319267
0.295223,1.36975,0.317892
0.281445,1.51896,0.31275
0.244746,1.91639,0.299057
0.222812,2.15392,0.290874
0.221461,2.16855,0.290369
0.172737,2.69621,0.27219
0.172398,2.69988,0.272064
0.172058,2.70355,0.271938
0.146949,2.97548,0.262568
0.110899,3.36589,0.249117
0.0836248,3.66123,0.238943
0.0453491,4.07574,0.224663
-0.146297,6.15114,0.153162
1.32991,-4.54758,-0.178885
1.30768,-4.31675,-0.185539
0.647493,-2.44254,0.442549
0.602282,-1.95288,0.425665
0.601952,-1.94933,0.425545
0.423176,-0.0132592,0.358795
0.390861,0.336668,0.346733
0.38786,0.369179,0.345612
0.377183,0.484833,0.341621
0.31225,1.18799,0.317383
0.300838,1.31158,0.313126
0.280676,1.52994,0.305593
0.273274,1.61009,0.30283
0.258459,1.77052,0.297302
0.249023,1.87271,0.293777
0.226756,2.11386,0.285463
0.201745,2.38473,0.276123
0.19159,2.49468,0.272335
0.0746098,3.76153,0.228657
0.0588903,3.93178,0.222788
0.0246506,4.30258,0.210003
-0.166635,6.3741,0.138586
-0.170461,6.41553,0.137157
-0.170809,6.4193,0.13703
1.30739,-4.31057,-0.192656
0.566746,-1.56544,0.405603
0.552254,-1.40851,0.40019
0.513973,-0.993938,0.385885
0.490158,-0.736012,0.376986
0.489494,-0.72884,0.37674
0.440731,-0.20076,0.358524
0.4404,-0.197161,0.358397
0.420112,0.022555,0.350817
0.407124,0.163206,0.345963
0.39879,0.25344,0.342854
0.325241,1.04996,0.315372
0.313501,1.17709,0.310989
0.297724,1.34798,0.30509
0.275867,1.58466,0.296926
0.265768,1.69402,0.293156
0.260042,1.75603,0.291016
0.209071,2.30802,0.271973
0.170462,2.72615,0.257547
0.121532,3.25606,0.239264
0.12119,3.25974,0.239138
0.112678,3.35194,0.235956
0.0976801,3.51435,0.230354
0.0625086,3.89526,0.217211
-0.0208416,4.79789,0.186073
0.81262,-4.22558,0.49073
0.769255,-3.75593,0.474516
0.66641,-2.64218,0.436066
0.633698,-2.28789,0.423836
0.5278,-1.14104,0.384241
0.511278,-0.962127,0.378065
0.476185,-0.582082,0.364948
0.448974,-0.287389,0.354773
0.409716,0.137751,0.340096
0.379695,0.462862,0.328875
0.332192,0.977322,0.311111
0.288217,1.45357,0.294668
0.259941,1.75979,0.284096
0.246455,1.90583,0.279055
0.241394,1.96064,0.277164
0.228903,2.09591,0.272493
0.165591,2.78155,0.248823
0.154048,2.90657,0.244507
0.036005,4.18495,0.200373
-0.0333948,4.93653,0.174427
-0.140601,6.09755,0.134344
-0.141297,6.10507,0.134087
-0.162146,6.33087,0.126289
1.29674,-4.19342,-0.20993
0.736792,-3.40176,0.455622
0.662144,-2.59334,0.427692
0.635639,-2.30628,0.417772
0.613998,-2.07195,0.409683
0.583778,-1.74466,0.398373
0.572594,-1.62352,0.394186
0.466177,-0.471058,0.354374
0.457547,-0.377595,0.351145
0.450903,-0.305658,0.348663
0.44858,-0.280472,0.34779
0.42297,-0.0031276,0.338207
0.418972,0.0401434,0.336716
0.406313,0.177255,0.331978
0.400312,0.242248,0.329731
0.391972,0.332566,0.326612
0.385631,0.401245,0.324238
0.363579,0.640072,0.315989
0.363245,0.643694,0.315861
0.328418,1.02085,0.302834
0.328081,1.02448,0.302711
0.303581,1.28981,0.293545
0.299213,1.33711,0.291908
0.292491,1.40992,0.289396
0.287111,1.46819,0.28738
0.262534,1.73434,0.278187
0.234876,2.0339,0.267838
0.227107,2.11803,0.264931
0.226429,2.12535,0.264679
0.226093,2.12901,0.264551
0.209188,2.31209,0.258226
0.208509,2.31942,0.257977
0.169542,2.74142,0.243397
0.16547,2.78553,0.241873
0.121271,3.26421,0.225334
0.0782919,3.72968,0.209253
-0.00121021,4.59066,0.17951
-0.0874109,5.52419,0.147261
-0.132455,6.01201,0.130407
-0.156772,6.27535,0.121309
-0.158858,6.29795,0.120529
-0.166512,6.38083,0.117666
-0.172776,6.44867,0.115324
0.686623,-2.85583,0.430079
0.529024,-1.14907,0.371075
0.488003,-0.704806,0.355717
0.464125,-0.44621,0.346777
0.422235,0.00746474,0.331091
0.334701,0.955452,0.298319
0.281294,1.53383,0.278328
0.268499,1.6724,0.273535
0.262433,1.73809,0.271265
0.261761,1.74539,0.271011
0.255354,1.81476,0.268614
0.230714,2.08161,0.25939
0.224969,2.14382,0.25724
0.17078,2.73068,0.236952
0.167385,2.76744,0.235682
0.159236,2.8557,0.23263
0.102052,3.47502,0.211218
0.084301,3.66725,0.204573
0.0103159,4.4685,0.176874
0.00481987,4.52803,0.174816
-0.0144367,4.73657,0.167606
-0.0792847,5.43886,0.143328
-0.127085,5.95654,0.125433
-0.171226,6.43459,0.108906
0.695744,-2.952,0.426716
0.551424,-1.38902,0.372648
0.529638,-1.15309,0.364487
0.519062,-1.03855,0.360525
0.508478,-0.923925,0.35656
0.491593,-0.741048,0.350233
0.489272,-0.715929,0.349365
0.475678,-0.568714,0.344273
0.4717,-0.525598,0.342777
0.464065,-0.442922,0.33992
0.459414,-0.392575,0.338181
0.413504,0.104662,0.320976
0.378127,0.487776,0.307724
0.377126,0.498633,0.307346
0.376121,0.509492,0.306974
0.37278,0.545693,0.305719
0.37044,0.57104,0.304844
0.276147,1.59223,0.269514
0.246479,1.91353,0.2584
0.24479,1.93181,0.257771
0.227226,2.12203,0.251188
0.221143,2.18794,0.248905
0.213023,2.27586,0.245867
0.212684,2.27952,0.245743
0.172358,2.71627,0.230631
0.164548,2.80083,0.227707
0.114195,3.34618,0.208839
0.113853,3.34987,0.208714
0.0964575,3.53828,0.202194
0.0937262,3.56785,0.201172
0.0622787,3.90841,0.189392
0.0417309,4.13095,0.181694
0.00603867,4.51749,0.168322
-0.0125313,4.7186,0.161364
-0.0573416,5.2039,0.144577
-0.114085,5.81844,0.123316
-0.136642,6.06273,0.114864
-0.141157,6.11164,0.113173
-0.166892,6.39034,0.103531
0.813301,-4.22257,0.464016
0.701601,-3.01282,0.422136
0.666986,-2.63795,0.409159
0.587618,-1.77838,0.379402
0.52298,-1.07836,0.355171
0.490542,-0.727056,0.34301
0.489881,-0.719877,0.34276
0.470643,-0.511544,0.33555
0.462676,-0.425248,0.33256
0.462345,-0.421651,0.332436
0.414765,0.0936261,0.314602
0.392081,0.339306,0.306093
0.290523,1.43918,0.268023
0.290187,1.44282,0.267897
0.28716,1.47562,0.266758
0.274363,1.61419,0.261963
0.269982,1.66163,0.260321
0.269648,1.66528,0.260193
0.263917,1.72733,0.258045
0.223398,2.16615,0.242857
0.211895,2.29072,0.238543
0.205125,2.36405,0.236004
0.154234,2.91521,0.216925
0.137226,3.0994,0.210548
0.112018,3.37243,0.201096
0.111676,3.37612,0.200966
0.0976868,3.52762,0.195723
0.0415859,4.13522,0.174688
0.0292387,4.26893,0.170061
-0.0865488,5.52291,0.126652
-0.0948572,5.6129,0.123537
-0.100052,5.66917,0.121588
-0.144122,6.14645,0.105066
-0.1476,6.18409,0.103765
-0.151076,6.22175,0.102461
-0.153857,6.25188,0.101416
-0.156642,6.28202,0.100374
-0.165342,6.37625,0.0971146
0.721792,-3.22892,0.422937
0.716579,-3.17247,0.420984
0.556616,-1.44,0.360966
0.52293,-1.0752,0.348331
0.512348,-0.960563,0.344358
0.499765,-0.824308,0.339636
0.471912,-0.52265,0.329189
0.402687,0.227069,0.303217
0.387329,0.393405,0.297455
0.335782,0.951677,0.278116
0.253695,1.84069,0.247318
0.175852,2.68375,0.218115
0.172457,2.72051,0.216843
0.166005,2.7904,0.21442
0.165666,2.79407,0.214293
0.143226,3.03709,0.205875
0.138461,3.0887,0.204086
0.138122,3.09238,0.203959
0.13778,3.09607,0.203833
0.108816,3.40978,0.192963
0.0749989,3.77603,0.180275
-0.00871468,4.68266,0.148869
-0.0100908,4.69757,0.148352
-0.0404158,5.02598,0.136976
-0.0950327,5.61749,0.116488
-0.142221,6.12857,0.0987816
-0.146395,6.17375,0.0972176
-0.162745,6.35084,0.0910797
-0.166924,6.39609,0.0895138
1.32351,-4.45516,-0.237131
0.791956,-3.98617,0.442499
0.749117,-3.52224,0.426418
0.703529,-3.02851,0.409306
0.697004,-2.95784,0.406853
0.67643,-2.73499,0.399128
0.676102,-2.73145,0.399006
0.65451,-2.4976,0.3909
0.647303,-2.41957,0.388197
0.561192,-1.48693,0.355867
0.541389,-1.27249,0.348433
0.53941,-1.25102,0.347689
0.532141,-1.1723,0.344959
0.512297,-0.957383,0.337509
0.46787,-0.476222,0.320829
0.445932,-0.238634,0.312593
0.443269,-0.209809,0.311596
0.418624,0.0571021,0.302345
0.416627,0.0787653,0.301588
0.370536,0.577928,0.284288
0.296052,1.3846,0.256327
0.294706,1.39917,0.255821
0.282925,1.52678,0.251396
0.171319,2.73551,0.209496
0.143782,3.03375,0.199158
0.135611,3.12224,0.196091
0.125392,3.23293,0.192251
0.103562,3.46934,0.184057
0.0998068,3.51001,0.182648
0.050889,4.03979,0.164286
0.0316858,4.24779,0.157072
-0.00267792,4.61995,0.144173
-0.118094,5.86993,0.100843
-0.152494,6.24251,0.0879269
-0.170947,6.44235,0.0809994
0.767307,-3.71664,0.426481
0.740658,-3.42801,0.41647
0.68066,-2.7782,0.39393
0.674122,-2.70739,0.391476
0.634167,-2.27467,0.376463
0.586193,-1.75508,0.358438
0.578949,-1.67663,0.355717
0.573677,-1.61954,0.353739
0.571701,-1.59812,0.352993
0.53672,-1.21928,0.339855
0.504961,-0.875299,0.327921
0.467145,-0.465743,0.313715
0.466813,-0.462145,0.313587
0.457176,-0.35777,0.309967
0.44154,-0.188447,0.304096
0.40154,0.244779,0.289068
0.380491,0.472749,0.28116
0.376477,0.516214,0.279652
0.337621,0.937047,0.265055
0.312437,1.2098,0.255592
0.30605,1.27898,0.253193
0.266312,1.70936,0.238264
0.256865,1.81168,0.234713
0.241669,1.97626,0.229004
0.236598,2.03117,0.2271
0.234232,2.0568,0.226212
0.176633,2.68062,0.204571
0.134121,3.14105,0.188601
0.129351,3.19271,0.186808
0.11776,3.31824,0.182453
0.100355,3.50675,0.175913
0.0287886,4.28183,0.149029
-0.02281,4.84067,0.129642
-0.0538635,5.17701,0.117975
-0.0621595,5.26683,0.114861
-0.0794535,5.45414,0.108364
-0.120358,5.89714,0.0929966
-0.125219,5.94979,0.0911713
-0.127995,5.97988,0.0901241
-0.137727,6.08526,0.0864697
-0.154422,6.26608,0.0801964
-0.173927,6.47732,0.0728703
1.32156,-4.42839,-0.251831
0.774773,-3.79489,0.422522
0.76016,-3.63663,0.417027
0.714596,-3.14312,0.399895
0.655775,-2.50607,0.377783
0.631516,-2.24334,0.368662
0.612144,-2.03351,0.361376
0.606554,-1.97299,0.35928
0.556158,-1.42719,0.340334
0.522785,-1.06573,0.327785
0.509544,-0.922325,0.322809
0.500931,-0.829034,0.319569
0.439812,-0.167073,0.296591
0.422154,0.0241707,0.289951
0.42182,0.0277816,0.289829
0.368368,0.606693,0.269733
0.3677,0.613945,0.269478
0.307302,1.26806,0.246775
0.289131,1.46488,0.239941
0.245617,1.93615,0.223583
0.170398,2.75081,0.195307
0.17006,2.75449,0.195177
0.156801,2.89808,0.190193
0.119335,3.30386,0.176107
0.118993,3.30756,0.17598
0.113534,3.36668,0.173929
0.0762882,3.77007,0.159924
0.000450134,4.59143,0.131414
-0.0264187,4.88243,0.121315
-0.0668221,5.32003,0.106121
-0.103188,5.71388,0.092453
-0.108736,5.77398,0.0903645
-0.138606,6.09749,0.0791359
-0.142431,6.13892,0.0776978
-0.163664,6.36888,0.0697155
-0.16436,6.37642,0.0694523
-0.169588,6.43303,0.0674877
-0.169935,6.43681,0.0673561
-0.174815,6.48966,0.0655212
0.719149,-3.18983,0.394823
0.70186,-3.00258,0.388321
0.699575,-2.97783,0.387459
0.679319,-2.75843,0.379839
0.678991,-2.75489,0.379713
0.642315,-2.35767,0.365917
0.613756,-2.04835,0.355171
0.572613,-1.60274,0.339695
0.558098,-1.44555,0.334236
0.542578,-1.27745,0.328396
0.524723,-1.08407,0.321678
0.518105,-1.01238,0.319189
0.498227,-0.797101,0.31171
0.478319,-0.581492,0.30422
0.469684,-0.487961,0.300972
0.450397,-0.279092,0.293718
0.450065,-0.275489,0.293594
0.446404,-0.23584,0.292215
0.446071,-0.232235,0.292091
0.43908,-0.15651,0.289459
0.438748,-0.152903,0.289333
0.41241,0.132334,0.279428
0.406736,0.193789,0.277292
0.392374,0.349351,0.271887
0.384351,0.436251,0.268867
0.378998,0.494212,0.266855
0.370968,0.5812,0.263832
0.33745,0.944215,0.251226
0.280273,1.56346,0.229715
0.273531,1.63649,0.227179
0.236384,2.0388,0.213203
0.235033,2.05345,0.212694
0.222851,2.18538,0.208113
0.169938,2.75846,0.188206
0.151233,2.96105,0.18117
0.120226,3.29687,0.169506
0.104526,3.46692,0.163597
0.102476,3.48912,0.162825
0.0593662,3.95601,0.146608
0.040164,4.16401,0.139381
0.0398197,4.16772,0.139256
0.0339832,4.23092,0.13706
-0.045908,5.0962,0.107004
-0.0638781,5.29085,0.100239
-0.140877,6.12479,0.0712719
-0.15062,6.23031,0.0676079
-0.163854,6.37364,0.0626297
0.788408,-3.93732,0.414108
0.756258,-3.58913,0.402006
0.71979,-3.19418,0.388283
0.699562,-2.97507,0.380663
0.68453,-2.81228,0.375006
0.677992,-2.74145,0.372543
0.634743,-2.27305,0.356262
0.61767,-2.08811,0.349831
0.561028,-1.47464,0.328508
0.551123,-1.36737,0.32478
0.478262,-0.57823,0.29735
0.466632,-0.452281,0.292973
0.454329,-0.319014,0.28834
0.376242,0.526699,0.258947
0.374905,0.541199,0.25844
0.315527,1.18431,0.236086
0.296348,1.39202,0.228867
0.285569,1.50877,0.224808
0.253518,1.85591,0.212738
0.251491,1.87787,0.211977
0.221387,2.2039,0.200645
0.169819,2.76243,0.181231
0.138167,3.10524,0.169315
0.103025,3.48585,0.156084
0.0489378,4.07166,0.135723
0.0485935,4.07537,0.135595
0.0448198,4.11625,0.134174
0.0104647,4.48835,0.121239
-0.105276,5.7419,0.0776653
-0.127153,5.97885,0.0694294
-0.142454,6.14457,0.0636692
-0.146281,6.18603,0.0622272
-0.154638,6.27652,0.0590839
-0.158468,6.31802,0.0576401
-0.168226,6.4237,0.0539665
0.662916,-2.57555,0.360065
0.637342,-2.29858,0.350431
0.61764,-2.08516,0.343004
0.584072,-1.7216,0.33036
0.582754,-1.70733,0.329863
0.572205,-1.59307,0.325888
0.565607,-1.52161,0.323402
0.565277,-1.51803,0.32328
0.556364,-1.4215,0.31992
0.527273,-1.10643,0.308962
0.441615,-0.178668,0.276691
0.41327,0.128316,0.266014
0.391554,0.363515,0.257835
0.339291,0.929572,0.238146
0.288168,1.48327,0.218885
0.28109,1.55994,0.216219
0.242936,1.97318,0.201843
0.241584,1.98783,0.201334
0.226695,2.14908,0.195726
0.174457,2.71486,0.176046
0.169698,2.76641,0.174253
0.153708,2.93959,0.168228
0.137699,3.11298,0.162199
0.12713,3.22745,0.158218
0.105624,3.46038,0.150114
0.103575,3.48258,0.149342
0.0940046,3.58624,0.145735
0.0902414,3.62698,0.14432
0.0898981,3.63069,0.144194
0.0885296,3.64551,0.143679
0.0881882,3.64921,0.143547
0.0868196,3.66403,0.143032
0.0714169,3.83087,0.137228
0.0618229,3.93478,0.133614
0.0477629,4.08707,0.128315
0.0123749,4.47035,0.114985
-0.000360489,4.60828,0.110188
-0.010005,4.71274,0.106552
-0.0196581,4.81728,0.102919
-0.121776,5.9233,0.0644474
0.817907,-4.25162,0.411686
0.809486,-4.16043,0.408512
0.785496,-3.90056,0.399464
0.658634,-2.52657,0.351646
0.59886,-1.87912,0.329107
0.585352,-1.73286,0.324018
0.582716,-1.7043,0.323025
0.527227,-1.10328,0.302101
0.418875,0.0702676,0.261257
0.417538,0.0847271,0.260756
0.415204,0.110035,0.259871
0.404851,0.222165,0.255968
0.334503,0.984077,0.22945
0.317362,1.16973,0.222988
0.31299,1.21709,0.22134
0.312654,1.22073,0.22121
0.293464,1.42858,0.213976
0.290431,1.46142,0.212833
0.281669,1.55635,0.209526
0.275258,1.62576,0.207113
0.244521,1.95867,0.195526
0.151543,2.96573,0.160471
0.151201,2.96942,0.160345
0.143025,3.05797,0.157263
0.136548,3.1281,0.154823
0.135528,3.13918,0.154436
0.0945501,3.58298,0.138988
0.0661354,3.89075,0.128279
0.065793,3.89446,0.128149
-0.0115423,4.73207,0.0989914
-0.0291338,4.92261,0.0923615
-0.0419111,5.06099,0.0875454
-0.0422573,5.06474,0.0874138
-0.096262,5.64967,0.0670547
-0.117785,5.8828,0.0589371
-0.124737,5.95808,0.0563183
-0.12891,6.00327,0.0547466
-0.133082,6.04847,0.0531712
-0.138998,6.11253,0.0509434
-0.141434,6.13892,0.0500259
-0.147699,6.20679,0.0476627
-0.152228,6.25582,0.0459576
0.726288,-3.25667,0.370352
0.620211,-2.10775,0.330334
0.598495,-1.87256,0.322145
0.500004,-0.805784,0.284986
0.477424,-0.561234,0.27647
0.461464,-0.388358,0.270447
0.422811,0.0302914,0.255867
0.166395,2.80753,0.159134
0.163333,2.84069,0.15798
0.148352,3.00296,0.152327
0.14699,3.01772,0.151812
0.143581,3.05462,0.150526
0.130282,3.19865,0.145514
0.122436,3.28366,0.14255
0.056736,3.99525,0.117765
0.0375118,4.20345,0.110514
0.020669,4.38588,0.104162
0.0175753,4.41941,0.102989
-0.0286045,4.91958,0.0855694
-0.0922756,5.60919,0.0615501
-0.0971308,5.66179,0.0597172
-0.114492,5.84982,0.0531693
-0.118314,5.89122,0.0517254
-0.126311,5.97782,0.0487118
-0.133266,6.05316,0.0460873
-0.133615,6.05693,0.0459576
-0.147886,6.21151,0.0405712
-0.159386,6.33605,0.0362339
-0.16043,6.34738,0.0358391
-0.166708,6.41536,0.0334721
0.713226,-3.1126,0.358627
0.711269,-3.09138,0.357887
0.641209,-2.33254,0.331438
0.558218,-1.43371,0.300114
0.508574,-0.895979,0.281368
0.497295,-0.773811,0.277109
0.448749,-0.248015,0.258785
0.444086,-0.197494,0.257023
0.426076,-0.00246055,0.250229
0.416064,0.106006,0.246445
0.404706,0.229035,0.242155
0.40437,0.232655,0.242033
0.401697,0.261619,0.241022
0.381959,0.475411,0.233568
0.366213,0.645948,0.227627
0.312808,1.22438,0.207466
0.282484,1.55283,0.196016
0.270671,1.68076,0.191559
0.241266,1.99927,0.180456
0.153337,2.95164,0.147263
0.15027,2.98484,0.146107
0.14993,2.98853,0.145977
0.131178,3.19164,0.138897
0.129813,3.20642,0.138384
0.121622,3.29515,0.13529
0.0723648,3.82865,0.116695
0.0401134,4.17797,0.104519
0.0174217,4.42375,0.0959549
0.015358,4.44611,0.0951729
-0.0827398,5.50861,0.0581417
-0.0882883,5.5687,0.0560474
-0.0973082,5.6664,0.0526428
0.808216,-4.13882,0.387712
0.704723,-3.01788,0.348614
0.685104,-2.80538,0.341202
0.645777,-2.37942,0.326347
0.604359,-1.93078,0.310696
0.587225,-1.74521,0.304224
0.5476,-1.31605,0.289261
0.540323,-1.23723,0.28651
0.531717,-1.14402,0.28326
0.521452,-1.03281,0.279377
0.47232,-0.50067,0.26082
0.443353,-0.186927,0.249876
0.403296,0.246956,0.234743
0.393597,0.352009,0.231079
0.377861,0.522431,0.225138
0.376521,0.536945,0.224632
0.37116,0.595013,0.222605
0.304298,1.31921,0.197346
0.287107,1.5054,0.190853
0.23879,2.02874,0.1726
0.166492,2.81182,0.145287
0.165133,2.82656,0.14477
0.157981,2.90401,0.142071
0.144691,3.04794,0.137053
0.129344,3.21419,0.13125
0.113291,3.38804,0.125191
0.111924,3.40285,0.124674
0.111242,3.41025,0.124413
0.0591927,3.974,0.104752
0.0317163,4.2716,0.0943718
-0.037219,5.01827,0.068327
-0.0420589,5.07068,0.0664997
-0.0558939,5.22053,0.0612755
-0.0822191,5.50567,0.0513287
-0.0863819,5.55075,0.0497589
-0.105819,5.76127,0.0424137
-0.118328,5.89677,0.0376892
-0.136766,6.09649,0.0307217
-0.137115,6.10026,0.0305901
-0.155929,6.30403,0.0234871
-0.164647,6.39846,0.0201912
0.765032,-3.66846,0.364603
0.739958,-3.3969,0.355127
0.709938,-3.07175,0.343781
0.687704,-2.83093,0.335377
0.677885,-2.72456,0.331663
0.673954,-2.68199,0.330175
0.673626,-2.67844,0.330053
0.668711,-2.62521,0.328196
0.668056,-2.61811,0.327948
0.662155,-2.5542,0.325718
0.637213,-2.28405,0.316288
0.624067,-2.14165,0.311317
0.608274,-1.97059,0.305346
0.568708,-1.54203,0.29039
0.537632,-1.20542,0.278639
0.535645,-1.18391,0.277891
0.535313,-1.18033,0.277765
0.530678,-1.13012,0.276012
0.525379,-1.07271,0.274008
0.476584,-0.544218,0.255564
0.4686,-0.457747,0.252546
0.44262,-0.176355,0.242727
0.428611,-0.0246055,0.237429
0.4206,0.0621807,0.2344
0.415589,0.116449,0.232504
0.394525,0.3446,0.224545
0.3885,0.409853,0.222267
0.386492,0.431611,0.221506
0.368064,0.631209,0.214539
0.367728,0.634841,0.214413
0.365047,0.663897,0.213398
0.341549,0.918393,0.204517
0.334157,0.998471,0.201721
0.286674,1.51276,0.183773
0.164329,2.83793,0.137522
0.156154,2.92646,0.134432
0.148659,3.00767,0.131596
0.148316,3.01136,0.13147
0.147976,3.01505,0.13134
0.141158,3.08892,0.128759
0.129214,3.21827,0.124245
0.112817,3.39586,0.11805
0.0974283,3.56255,0.11223
0.0837355,3.71087,0.107052
0.0833931,3.71458,0.106922
0.064538,3.91879,0.0998001
0.0549316,4.02286,0.0961628
0.0545874,4.02658,0.0960369
0.054244,4.03029,0.0959053
0.0288172,4.30571,0.0862923
0.0246887,4.35042,0.0847321
0.00609589,4.55179,0.0777073
-0.0145912,4.77586,0.0698853
-0.042223,5.07517,0.0594368
-0.0567541,5.23255,0.0539455
-0.068181,5.35632,0.0496235
-0.0685272,5.36007,0.0494938
-0.111556,5.82613,0.0332279
-0.142874,6.16532,0.0213909
-0.149841,6.24081,0.018755
-0.158209,6.33144,0.0155907
-0.160651,6.35789,0.0146694
0.753637,-3.54244,0.353502
0.752985,-3.53539,0.353256
0.670658,-2.64367,0.322113
0.583853,-1.70344,0.289276
0.542219,-1.25248,0.273525
0.529306,-1.11261,0.268641
0.527647,-1.09467,0.268017
0.520027,-1.01211,0.265127
0.474531,-0.519326,0.247917
0.465214,-0.418401,0.244392
0.457889,-0.339053,0.241621
0.440557,-0.151329,0.235067
0.427876,-0.0139889,0.23027
0.380386,0.500399,0.212303
0.315228,1.20615,0.187654
0.309165,1.27181,0.185364
0.241625,2.00338,0.159813
0.215529,2.28603,0.149942
0.215193,2.2897,0.149809
0.163525,2.8493,0.130268
0.153304,2.96001,0.126402
0.136935,3.13731,0.120209
0.134205,3.16689,0.119177
0.12362,3.28153,0.115173
0.121572,3.30373,0.114395
0.0924997,3.61861,0.103401
0.0918159,3.62602,0.10314
0.0763988,3.79301,0.0973091
0.0688562,3.87472,0.0944538
0.0623369,3.94532,0.0919895
0.0585632,3.98621,0.090559
0.0571899,4.00108,0.0900421
0.0496359,4.0829,0.087183
0.0107651,4.50391,0.0724812
0.00800991,4.53376,0.0714359
0.0066309,4.54869,0.0709152
-0.00164127,4.6383,0.0677872
-0.00819492,4.70927,0.0653095
-0.00922871,4.72048,0.0649147
-0.0306349,4.95234,0.056818
-0.0673122,5.34961,0.042944
-0.129128,6.01916,0.019558
-0.137485,6.10967,0.0163975
-0.143754,6.17759,0.0140247
-0.161886,6.37399,0.00716591
0.719717,-3.17241,0.33386
0.716452,-3.13703,0.332624
0.686691,-2.8147,0.321362
0.685709,-2.80406,0.320988
0.673918,-2.67634,0.316526
0.670313,-2.63729,0.315161
0.631245,-2.21414,0.300373
0.616772,-2.05736,0.294893
0.568628,-1.5359,0.276669
0.549454,-1.32821,0.269411
0.54019,-1.22784,0.2659
0.527601,-1.09151,0.261137
0.519978,-1.00893,0.258249
0.510691,-0.908333,0.254734
0.458493,-0.342951,0.234972
0.433149,-0.0684567,0.225384
0.429811,-0.0322997,0.224119
0.408093,0.202944,0.215897
0.40776,0.206566,0.215767
0.301998,1.35213,0.175732
0.298626,1.38865,0.174456
0.235421,2.07324,0.150532
0.232034,2.10994,0.149248
0.154544,2.94926,0.119915
0.147044,3.03051,0.117075
0.133393,3.17835,0.11191
0.126905,3.24863,0.109453
0.104002,3.49671,0.100782
0.101265,3.52637,0.0997448
0.0981855,3.55973,0.0985775
0.083456,3.71925,0.0930061
0.0807152,3.74894,0.0919666
0.0711155,3.85293,0.0883312
0.0484581,4.09833,0.0797558
0.0391788,4.19885,0.0762424
0.0388355,4.20257,0.0761108
0.0316133,4.2808,0.0733776
0.0271397,4.32925,0.0716858
0.024044,4.3628,0.0705109
0.00716686,4.5456,0.0641232
-0.00179577,4.64268,0.0607281
-0.0435925,5.09537,0.0449123
-0.0640163,5.31662,0.0371761
-0.0657501,5.33538,0.0365219
-0.067482,5.35415,0.0358639
-0.116436,5.88439,0.0173359
-0.127223,6.00123,0.0132523
-0.130704,6.03894,0.0119343
-0.139064,6.12948,0.00876999
-0.156495,6.31829,0.00217056
-0.159984,6.35608,0.000850677
0.705326,-3.01393,0.321604
0.686674,-2.8119,0.314539
0.604885,-1.92598,0.283552
0.604555,-1.92241,0.283426
0.595655,-1.82601,0.280056
0.58312,-1.69022,0.275307
0.544777,-1.27492,0.260784
0.535505,-1.17449,0.257271
0.532524,-1.14219,0.256144
0.532192,-1.1386,0.256016
0.522911,-1.03808,0.252502
0.511965,-0.919511,0.248354
0.494368,-0.72888,0.241684
0.464426,-0.404581,0.230345
0.44076,-0.148224,0.221376
0.40869,0.199133,0.209232
0.403337,0.257108,0.207203
0.376207,0.550966,0.196926
0.375872,0.554598,0.196798
0.312015,1.24629,0.172607
0.311678,1.24994,0.17248
0.309319,1.27549,0.171587
0.307299,1.29739,0.170818
0.297519,1.40329,0.167118
0.208858,2.36365,0.13353
0.160896,2.88314,0.115364
0.160215,2.89052,0.115105
0.159875,2.89421,0.114973
0.146917,3.03455,0.110069
0.135656,3.15653,0.105801
0.133948,3.17502,0.105156
0.124726,3.27492,0.101662
0.113106,3.40081,0.0972576
0.0966787,3.57872,0.0910378
0.0888014,3.66405,0.0880527
0.0833187,3.72343,0.0859756
0.082633,3.73086,0.0857162
0.0682287,3.88688,0.0802593
0.0623951,3.95008,0.0780487
0.0586166,3.99098,0.0766201
0.0414381,4.17707,0.0701103
0.0379992,4.21432,0.0688095
0.0276775,4.32611,0.0648975
0.0173483,4.43799,0.0609856
0.0166588,4.44546,0.0607262
0.00769997,4.5425,0.0573311
-0.0250854,4.89762,0.0449123
-0.0503311,5.17109,0.035347
-0.0572567,5.2461,0.0327225
-0.0576048,5.24985,0.0325928
-0.0718136,5.40376,0.0272102
-0.0735464,5.42254,0.0265522
-0.114877,5.87021,0.0108967
-0.131583,6.05118,0.00456619
-0.142035,6.16439,0.000606537
-0.157382,6.3306,-0.00520325
0.834835,-4.41409,0.363878
0.792347,-3.95386,0.347771
0.752001,-3.51684,0.332476
0.751675,-3.51331,0.332354
0.701717,-2.97219,0.313417
0.694845,-2.89776,0.310812
0.67421,-2.67423,0.302986
0.666666,-2.59253,0.300127
0.666338,-2.58898,0.300005
0.664042,-2.56411,0.299135
0.627245,-2.16553,0.285183
0.589025,-1.75153,0.270695
0.581102,-1.66573,0.267694
0.555984,-1.39367,0.258173
0.548042,-1.30765,0.255165
0.54705,-1.29689,0.254784
0.546721,-1.29331,0.25466
0.52021,-1.00616,0.244612
0.462033,-0.376015,0.222559
0.461367,-0.368797,0.222307
0.451034,-0.256874,0.218388
0.450035,-0.246038,0.218006
0.407949,0.209814,0.202053
0.401592,0.27868,0.199642
0.370427,0.616239,0.187834
0.304169,1.33392,0.162718
0.285275,1.53859,0.155552
0.234189,2.09192,0.13619
0.223339,2.20945,0.132076
0.22266,2.2168,0.131819
0.164522,2.84654,0.109779
0.155319,2.94623,0.106291
0.147817,3.02751,0.103445
0.121179,3.31603,0.0933475
0.116735,3.36418,0.0916634
0.108184,3.45681,0.088419
0.0996256,3.5495,0.0851765
0.0824947,3.73505,0.0786839
0.0814648,3.74619,0.0782948
0.0516033,4.06965,0.0669727
0.0378513,4.21861,0.0617599
0.0285606,4.31925,0.0582371
0.0223627,4.38638,0.055891
0.0171967,4.44234,0.0539303
0.0134058,4.4834,0.052494
-0.0886402,5.58874,0.0138092
-0.0976715,5.68656,0.0103855
-0.0983667,5.69409,0.0101223
-0.0987148,5.69786,0.0099926
-0.151638,6.27111,-0.0100708
0.812805,-4.17286,0.348736
0.791376,-3.94074,0.340607
0.764704,-3.65181,0.330486
0.720341,-3.1713,0.313662
0.699411,-2.94461,0.305725
0.671568,-2.64298,0.295153
0.631823,-2.21249,0.280081
0.630178,-2.19467,0.279457
0.616682,-2.04848,0.274338
0.614046,-2.01994,0.273338
0.600206,-1.87,0.268085
0.593607,-1.79855,0.265587
0.581064,-1.66269,0.260828
0.567848,-1.51953,0.255816
0.567518,-1.51595,0.25569
0.567188,-1.51237,0.255562
0.565205,-1.49089,0.25481
0.561897,-1.45507,0.253555
0.557598,-1.40849,0.251925
0.557266,-1.40491,0.251801
0.554951,-1.37982,0.250923
0.553295,-1.3619,0.250294
0.549986,-1.32605,0.249037
0.529118,-1.09998,0.241117
0.522152,-1.02455,0.238478
0.478292,-0.549462,0.22184
0.477627,-0.542252,0.221588
0.467637,-0.434052,0.2178
0.464638,-0.401576,0.216663
0.442965,-0.166807,0.208441
0.42393,0.0393849,0.20122
0.420252,0.0792106,0.199825
0.40152,0.282132,0.192719
0.397501,0.325652,0.191195
0.394486,0.358301,0.190052
0.379742,0.518027,0.184456
0.378736,0.528923,0.184074
0.370349,0.619763,0.180893
0.276733,1.63379,0.14538
0.148374,3.02415,0.0966911
0.12891,3.23498,0.0893078
0.128227,3.24238,0.0890465
0.127885,3.24608,0.0889206
0.126518,3.26089,0.088398
0.093667,3.61673,0.0759392
0.0929813,3.62415,0.0756798
0.0802984,3.76153,0.0708656
0.0514574,4.07392,0.059927
0.0377026,4.22291,0.0547123
0.0229006,4.38325,0.0490952
0.0163555,4.45415,0.0466118
0.00497818,4.57738,0.0422955
-0.00364685,4.67081,0.0390244
-0.00399208,4.67455,0.0388927
-0.00502777,4.68576,0.0384998
-0.0105515,4.74559,0.0364056
-0.0119324,4.76056,0.0358829
-0.0146961,4.79048,0.0348339
-0.0150414,4.79423,0.0347023
-0.102715,5.7439,0.00144577
-0.109671,5.81924,-0.00119209
-0.126378,6.0002,-0.00753212
-0.127772,6.0153,-0.00805855
0.823843,-4.2898,0.346128
0.799829,-4.02968,0.337015
0.79138,-3.93817,0.333807
0.754929,-3.54331,0.319969
0.753622,-3.52918,0.319475
0.745798,-3.44442,0.316505
0.702671,-2.97729,0.300137
0.691214,-2.85317,0.295786
0.690887,-2.84962,0.29566
0.690233,-2.84253,0.29541
0.6745,-2.67212,0.289438
0.650866,-2.41612,0.280468
0.649221,-2.39832,0.279848
0.628176,-2.17035,0.271856
0.625214,-2.13826,0.270733
0.6127,-2.0027,0.26598
0.61237,-1.99913,0.265854
0.606768,-1.93844,0.263727
0.60215,-1.88844,0.261976
0.595552,-1.81698,0.259474
0.593573,-1.79554,0.25872
0.590273,-1.75979,0.257467
0.577394,-1.62028,0.252579
0.577065,-1.61671,0.252453
0.567148,-1.5093,0.24869
0.566486,-1.50213,0.248438
0.565165,-1.48781,0.247936
