6.498,6.44685,0.401917
5.79959,6.93216,1.0484
5.79888,6.93626,1.04869
5.79817,6.94036,1.04897
4.8247,8.11444,1.89885
4.82402,8.11839,1.89912
4.82335,8.12234,1.89938
4.82267,8.12629,1.89965
4.822,8.13024,1.89992
4.82132,8.13419,1.90018
4.82065,8.13814,1.90045
4.81997,8.14209,1.90071
4.8193,8.14604,1.90098
4.64529,9.16424,1.96973
4.64462,9.16818,1.96999
4.64395,9.17212,1.97026
7.19066,2.53318,0.107704
7.18991,2.53744,0.108015
7.18916,2.54169,0.108328
7.1884,2.54595,0.108641
7.18765,2.55021,0.108953
7.1869,2.55447,0.109261
7.18615,2.55872,0.109575
7.1854,2.56298,0.109886
7.18464,2.56724,0.110201
7.18389,2.57149,0.11051
7.15532,2.73322,0.12236
7.15457,2.73748,0.122671
7.15382,2.74173,0.122986
6.50212,6.43099,0.393274
6.50138,6.4352,0.393581
5.8027,6.92092,1.04045
5.80199,6.92503,1.04074
5.80128,6.92913,1.04102
4.83291,8.07222,1.88922
4.83223,8.07618,1.88948
4.83156,8.08013,1.88975
4.83088,8.08408,1.89002
4.83021,8.08803,1.89028
4.82953,8.09198,1.89055
4.82885,8.09593,1.89082
4.82818,8.09989,1.89109
4.82751,8.10384,1.89135
4.82683,8.10779,1.89162
4.82615,8.11174,1.89189
4.64402,9.17752,1.96385
4.64334,9.18146,1.96412
4.64267,9.1854,1.96438
4.642,9.18935,1.96465
7.15434,2.74627,0.115797
7.15359,2.75052,0.116104
7.15284,2.75478,0.116419
6.504,6.42777,0.385553
5.8051,6.91379,1.03278
5.8044,6.91789,1.03306
4.83707,8.05371,1.88118
4.83639,8.05766,1.88145
4.83572,8.06161,1.88172
4.83504,8.06557,1.88199
4.83437,8.06952,1.88225
4.64207,9.19474,1.95824
4.6414,9.19869,1.95851
4.64072,9.20263,1.95877
4.64005,9.20657,1.95904
4.63937,9.21052,1.95931
7.15336,2.75931,0.109228
7.15261,2.76357,0.109539
7.15185,2.76782,0.109852
6.50664,6.42033,0.377518
6.50589,6.42455,0.377827
5.80751,6.90665,1.02511
5.8068,6.91076,1.02539
4.84055,8.03914,1.87341
4.83988,8.04309,1.87368
4.8392,8.04705,1.87395
4.83853,8.051,1.87421
4.63945,9.21592,1.95289
4.63877,9.21987,1.95316
4.6381,9.22381,1.95342
4.63743,9.22775,1.95369
4.63675,9.2317,1.95396
7.15238,2.77236,0.102657
7.15163,2.77662,0.102968
7.15087,2.78088,0.103283
7.15012,2.78513,0.103596
7.1426,2.8277,0.106712
7.14185,2.83196,0.107025
7.1411,2.83622,0.10734
7.14034,2.84047,0.107651
7.13959,2.84473,0.107962
7.13884,2.84899,0.108273
7.13809,2.85324,0.108587
7.13734,2.8575,0.108898
7.13659,2.86176,0.109211
7.13583,2.86601,0.109522
7.13508,2.87027,0.109833
7.13433,2.87453,0.110144
7.13358,2.87878,0.110458
7.13283,2.88304,0.110769
7.13208,2.88729,0.111078
7.13132,2.89155,0.111395
7.13057,2.89581,0.111704
7.12982,2.90006,0.112019
7.12907,2.90432,0.112329
7.12831,2.90857,0.11264
7.12756,2.91283,0.112951
7.12681,2.91709,0.113266
7.12606,2.92134,0.113577
7.12531,2.9256,0.113892
7.12456,2.92985,0.114199
7.1238,2.93411,0.114511
7.12305,2.93836,0.114824
7.1223,2.94262,0.115137
7.12155,2.94688,0.11545
7.1208,2.95113,0.115759
7.12004,2.95539,0.116074
7.1193,2.95964,0.116383
7.11854,2.9639,0.116697
7.09149,3.11706,0.127922
7.09073,3.12131,0.128233
7.08998,3.12557,0.128544
7.08923,3.12982,0.128855
7.08848,3.13407,0.129166
6.50927,6.4129,0.369478
6.50852,6.41711,0.369789
5.81063,6.8954,1.01715
5.80992,6.89951,1.01743
5.80921,6.90361,1.01771
4.84337,8.02852,1.86591
4.84269,8.03248,1.86617
4.84202,8.03643,1.86644
4.63682,9.23711,1.94754
4.63615,9.24105,1.94781
4.63548,9.245,1.94807
4.6348,9.24894,1.94834
4.63413,9.25288,1.94861
4.63345,9.25683,1.94887
4.63278,9.26077,1.94914
4.6321,9.26472,1.94941
4.63143,9.26866,1.94967
7.15064,2.78968,0.0963974
7.14989,2.79393,0.0967102
7.14914,2.79819,0.0970211
7.14838,2.80245,0.0973377
7.14763,2.80671,0.0976448
7.14688,2.81097,0.0979595
7.14613,2.81522,0.0982685
7.14538,2.81948,0.0985832
7.14462,2.82374,0.098896
7.11906,2.96847,0.109503
7.11831,2.97273,0.109816
7.11755,2.97698,0.110128
7.1168,2.98124,0.110439
7.11605,2.9855,0.110752
7.10327,3.05784,0.116056
7.10252,3.0621,0.116367
7.10176,3.06635,0.11668
7.10102,3.07061,0.116991
7.10026,3.07486,0.117304
7.09951,3.07912,0.117613
7.09876,3.08337,0.117924
7.09801,3.08763,0.118238
7.09726,3.09188,0.118549
7.0965,3.09614,0.118862
7.09575,3.10039,0.119175
7.095,3.10464,0.119488
7.09425,3.1089,0.119799
7.0935,3.11315,0.12011
7.08899,3.13868,0.121983
7.08824,3.14293,0.122293
7.08749,3.14719,0.122602
7.08673,3.15144,0.122917
7.08598,3.1557,0.123228
7.08523,3.15995,0.123543
6.5119,6.40545,0.361441
6.51115,6.40967,0.361748
5.81304,6.88826,1.00947
5.81233,6.89236,1.00975
4.84618,8.0179,1.8584
4.8455,8.02185,1.85867
4.84483,8.02581,1.85893
4.6315,9.27408,1.94326
4.63083,9.27802,1.94352
4.63015,9.28197,1.94379
4.62948,9.28591,1.94405
4.62881,9.28986,1.94432
4.62813,9.2938,1.94459
4.62746,9.29775,1.94485
7.11656,2.99008,0.103559
7.11581,2.99433,0.10387
7.11506,2.99859,0.104181
7.11431,3.00285,0.104494
7.11356,3.0071,0.104805
7.1128,3.01136,0.105118
7.11205,3.01562,0.105433
7.1113,3.01987,0.105743
7.11055,3.02413,0.106054
7.1098,3.02839,0.106365
7.10905,3.03264,0.106678
7.10829,3.0369,0.106989
7.10754,3.04115,0.107302
7.10679,3.04541,0.107615
7.10604,3.04967,0.107925
7.10529,3.05392,0.108238
7.08574,3.16456,0.116348
7.08499,3.16882,0.116659
7.08423,3.17307,0.116978
7.08349,3.17733,0.117285
6.51379,6.40223,0.353704
5.81544,6.88111,1.00179
5.81474,6.88522,1.00207
4.84899,8.00727,1.85089
4.84832,8.01123,1.85115
4.84764,8.01518,1.85142
4.62753,9.30317,1.93844
4.62685,9.30712,1.9387
4.62618,9.31106,1.93897
4.6255,9.31501,1.93924
4.62483,9.31895,1.9395
7.08399,3.18195,0.110094
7.08324,3.1862,0.110405
7.08249,3.19046,0.110716
7.08174,3.19471,0.111031
6.51642,6.39478,0.345661
6.51568,6.399,0.345968
5.81786,6.87396,0.994099
5.81715,6.87807,0.994381
4.85181,7.99664,1.84337
4.85113,8.0006,1.84364
4.85046,8.00455,1.8439
4.6249,9.32438,1.93308
4.62422,9.32832,1.93335
4.62355,9.33227,1.93362
4.62288,9.33622,1.93388
4.6222,9.34016,1.93415
4.62153,9.34411,1.93442
4.62085,9.34805,1.93468
4.62018,9.352,1.93495
4.61546,9.37962,1.93681
4.61478,9.38357,1.93708
4.61411,9.38751,1.93735
4.61343,9.39146,1.93762
4.61276,9.3954,1.93788
4.61209,9.39935,1.93815
4.61141,9.40329,1.93841
4.61074,9.40724,1.93868
4.61006,9.41118,1.93895
4.60939,9.41513,1.93921
4.60871,9.41907,1.93948
4.60804,9.42302,1.93975
4.60736,9.42696,1.94002
4.60669,9.43091,1.94028
4.60602,9.43485,1.94055
7.08225,3.19933,0.103834
7.0815,3.20359,0.104145
7.08074,3.20785,0.104458
7.07999,3.2121,0.104771
7.07924,3.21636,0.105083
7.07397,3.24615,0.107267
7.07322,3.2504,0.107578
7.07247,3.25466,0.107889
7.07172,3.25892,0.108204
7.07097,3.26317,0.108515
7.07022,3.26743,0.108824
7.06947,3.27168,0.109138
7.06871,3.27594,0.109449
7.06796,3.28019,0.109766
7.06721,3.28445,0.110075
7.06646,3.2887,0.110388
7.06571,3.29296,0.110699
7.06495,3.29721,0.111012
7.06421,3.30147,0.111322
7.06345,3.30572,0.111635
7.0627,3.30998,0.111948
7.06195,3.31423,0.112259
7.0612,3.31849,0.11257
7.06044,3.32274,0.112885
7.05969,3.327,0.113195
7.05894,3.33125,0.11351
7.05819,3.33551,0.113819
7.05744,3.33976,0.114132
7.05669,3.34402,0.114443
7.05593,3.34827,0.114754
7.05518,3.35253,0.115068
7.05443,3.35678,0.115377
6.51906,6.38733,0.337608
6.51831,6.39155,0.337917
5.82027,6.86681,0.986406
5.81956,6.87092,0.986692
4.85463,7.986,1.83585
4.85395,7.98996,1.83612
4.85327,7.99392,1.83639
4.62025,9.35743,1.92853
4.61957,9.36138,1.92879
4.6189,9.36533,1.92906
4.61822,9.36927,1.92933
4.61755,9.37322,1.92959
4.61687,9.37717,1.92986
4.60609,9.4403,1.93412
4.60541,9.44425,1.93439
4.60474,9.4482,1.93466
4.60406,9.45214,1.93493
7.07974,3.22098,0.0978851
7.07899,3.22524,0.098196
7.07824,3.2295,0.0985107
7.07749,3.23375,0.0988197
7.07674,3.23801,0.0991344
7.07598,3.24227,0.0994473
7.05494,3.36143,0.108183
7.05418,3.36569,0.108498
7.05343,3.36995,0.108809
7.05268,3.3742,0.109121
7.05193,3.37846,0.10943
7.05118,3.38271,0.109743
6.52169,6.37988,0.329552
6.52095,6.3841,0.329863
5.82197,6.86376,0.979004
4.85744,7.97536,1.82833
4.85677,7.97932,1.8286
4.85609,7.98328,1.82887
4.60413,9.45759,1.9285
4.60345,9.46154,1.92877
4.60278,9.46549,1.92904
4.6021,9.46943,1.9293
4.60143,9.47338,1.92957
4.60075,9.47732,1.92984
7.05168,3.38737,0.102549
7.05093,3.39162,0.102859
7.05017,3.39588,0.103172
7.04942,3.40014,0.103485
6.52358,6.37664,0.321806
5.82368,6.86071,0.97159
4.86026,7.96472,1.82081
4.85958,7.96867,1.82107
4.85891,7.97263,1.82134
4.60082,9.48278,1.92341
4.60015,9.48673,1.92368
4.59947,9.49068,1.92395
4.5988,9.49462,1.92421
4.59812,9.49857,1.92448
4.59745,9.50252,1.92475
4.59678,9.50646,1.92501
4.5961,9.51041,1.92528
4.59542,9.51436,1.92555
7.04992,3.4048,0.0962849
7.04917,3.40906,0.0965977
7.04842,3.41331,0.0969086
7.04767,3.41757,0.0972214
7.04692,3.42182,0.0975323
7.04616,3.42608,0.097847
7.02436,3.5495,0.106897
7.02361,3.55375,0.107212
7.02286,3.55801,0.107523
7.02211,3.56226,0.107838
7.02135,3.56652,0.108149
6.52622,6.36918,0.313749
6.52547,6.37341,0.314056
5.82609,6.85355,0.963892
5.82538,6.85766,0.964176
4.86308,7.95407,1.81328
4.86241,7.95803,1.81355
4.86173,7.96199,1.81382
4.59549,9.51982,1.91912
4.59481,9.52377,1.91938
4.59414,9.52772,1.91965
4.59346,9.53166,1.91992
4.59279,9.53561,1.92019
4.59212,9.53956,1.92045
4.59144,9.54351,1.92072
4.59077,9.54745,1.92099
4.59009,9.5514,1.92125
7.04667,3.43075,0.0906448
7.04591,3.43501,0.0909576
7.04516,3.43926,0.0912666
7.04441,3.44352,0.0915813
7.04366,3.44778,0.0918941
7.0429,3.45203,0.0922089
7.04215,3.45629,0.0925198
7.0414,3.46055,0.0928326
7.04065,3.4648,0.0931435
7.0399,3.46906,0.0934582
7.03914,3.47332,0.0937691
7.03839,3.47757,0.0940819
7.03764,3.48183,0.0943909
7.03689,3.48609,0.0947056
7.03614,3.49034,0.0950184
7.03539,3.4946,0.0953312
7.03463,3.49886,0.095644
7.03388,3.50311,0.0959549
7.03313,3.50737,0.0962658
7.03238,3.51163,0.0965786
7.03163,3.51588,0.0968914
7.03087,3.52014,0.0972061
7.03012,3.52439,0.097517
7.02937,3.52865,0.0978298
7.02862,3.53291,0.0981426
7.02787,3.53716,0.0984535
7.02711,3.54142,0.0987644
7.02637,3.54568,0.0990753
7.02185,3.57121,0.10095
7.0211,3.57547,0.101265
7.02035,3.57972,0.101578
7.01959,3.58398,0.101889
7.01884,3.58823,0.102198
7.01809,3.59249,0.102512
6.52812,6.36595,0.305994
5.8278,6.8505,0.956476
4.86658,7.93945,1.80548
4.8659,7.94341,1.80575
4.86523,7.94737,1.80602
4.86455,7.95134,1.80629
4.59015,9.55687,1.91483
4.58948,9.56082,1.91509
4.58881,9.56477,1.91536
7.01859,3.59719,0.095314
7.01784,3.60144,0.0956249
7.01708,3.6057,0.0959396
7.01633,3.60996,0.0962486
6.53075,6.35848,0.297926
6.53001,6.36271,0.298235
5.82951,6.84745,0.949057
4.87008,7.92483,1.79768
4.8694,7.92879,1.79795
4.86873,7.93276,1.79821
4.86805,7.93672,1.79848
4.58887,9.57025,1.90893
4.58819,9.57419,1.90919
4.56997,9.68079,1.9164
4.5693,9.68474,1.91667
4.56863,9.68868,1.91694
4.56795,9.69263,1.9172
4.56728,9.69658,1.91747
4.5666,9.70053,1.91774
4.56593,9.70447,1.918
4.56525,9.70842,1.91827
4.56458,9.71237,1.91854
4.56391,9.71632,1.9188
4.56323,9.72026,1.91907
4.56256,9.72421,1.91934
4.56188,9.72816,1.91961
4.56121,9.7321,1.91987
4.56053,9.73605,1.92014
7.01683,3.61466,0.0890465
7.01608,3.61892,0.0893574
7.01532,3.62317,0.0896721
7.01457,3.62743,0.0899792
7.01382,3.63169,0.0902939
6.98976,3.76788,0.100286
6.98901,3.77213,0.100603
6.98826,3.77639,0.100914
6.9875,3.78064,0.101227
6.98675,3.7849,0.10154
6.986,3.78915,0.101852
6.98525,3.79341,0.102163
6.9845,3.79766,0.102476
6.53265,6.35524,0.290163
4.87494,7.90228,1.78934
4.87426,7.90624,1.78961
4.87358,7.9102,1.78988
4.8729,7.91417,1.79014
4.87222,7.91813,1.79041
4.87155,7.92209,1.79068
4.58826,9.57967,1.90276
4.58758,9.58362,1.90303
4.58691,9.58757,1.9033
4.57544,9.6547,1.90783
4.57476,9.65865,1.9081
4.57409,9.6626,1.90837
4.57341,9.66655,1.90864
4.57273,9.67049,1.90891
4.57206,9.67444,1.90917
4.57139,9.67839,1.90944
4.56059,9.74156,1.91371
4.55992,9.74551,1.91397
4.55924,9.74945,1.91424
7.01432,3.6364,0.0830898
7.01356,3.64065,0.0834026
7.01281,3.64491,0.0837154
7.01206,3.64917,0.0840263
7.0113,3.65343,0.084341
6.99326,3.75559,0.091835
6.99251,3.75985,0.0921497
6.99175,3.7641,0.0924644
6.98499,3.80241,0.0952721
6.98423,3.80666,0.0955887
6.98348,3.81092,0.0959015
6.53529,6.34777,0.282091
6.53455,6.352,0.282402
5.83221,6.84546,0.93449
4.87979,7.87972,1.781
4.87912,7.88368,1.78126
4.87844,7.88764,1.78153
4.87776,7.89161,1.7818
4.87708,7.89557,1.78207
4.87641,7.89954,1.78234
4.58697,9.59305,1.89686
4.5863,9.597,1.89713
4.58562,9.60095,1.89739
4.57955,9.6365,1.8998
4.57887,9.64045,1.90007
4.5782,9.6444,1.90033
4.57752,9.64835,1.9006
4.57685,9.6523,1.90087
4.5593,9.75496,1.90781
4.55863,9.75891,1.90808
7.0118,3.65814,0.0771332
7.01105,3.6624,0.077446
7.0103,3.66666,0.0777588
7.00955,3.67092,0.0780697
7.00879,3.67517,0.0783825
7.00804,3.67943,0.0786934
6.99676,3.74329,0.0833836
6.996,3.74755,0.0836945
6.99525,3.75181,0.0840073
6.98397,3.81566,0.0886936
6.98322,3.81992,0.0890083
6.53719,6.34453,0.274324
5.83392,6.8424,0.927061
4.8833,7.86507,1.77318
4.88262,7.86904,1.77345
4.88194,7.873,1.77372
4.88126,7.87697,1.77399
4.58568,9.60644,1.89096
4.58501,9.61039,1.89123
4.58433,9.61434,1.89149
4.58366,9.61829,1.89176
4.58298,9.62224,1.89203
4.58231,9.62619,1.89229
4.58163,9.63014,1.89256
4.58096,9.63409,1.89283
4.55868,9.76443,1.90164
4.55801,9.76838,1.90191
4.55733,9.77232,1.90218
7.00854,3.68415,0.0714836
7.00778,3.68841,0.0717964
7.00703,3.69267,0.0721092
7.00628,3.69693,0.072422
7.00552,3.70119,0.0727367
7.00477,3.70544,0.0730495
7.00402,3.7097,0.0733624
7.00327,3.71396,0.0736732
7.00252,3.71822,0.0739861
7.00176,3.72248,0.074297
7.00101,3.72674,0.0746117
7.00026,3.73099,0.0749245
6.99951,3.73525,0.0752373
6.99875,3.73951,0.0755501
6.98371,3.82466,0.0818005
6.53983,6.33706,0.266247
6.53909,6.34129,0.266554
5.83563,6.83934,0.91963
4.88613,7.85439,1.76564
4.88545,7.85836,1.76591
4.88477,7.86232,1.76618
4.55739,9.77784,1.89574
4.55672,9.78179,1.89601
4.55604,9.78574,1.89627
6.9842,3.82941,0.0745945
6.98345,3.83367,0.0749035
6.54323,6.32535,0.257849
6.54248,6.32958,0.258162
6.54173,6.33381,0.258474
4.88828,7.84767,1.75836
4.8876,7.85164,1.75863
4.5561,9.79126,1.88984
4.55542,9.79521,1.8901
6.98394,3.83842,0.0676918
6.98318,3.84268,0.0680046
6.98243,3.84694,0.0683193
6.9719,3.90655,0.0726948
6.97115,3.91081,0.0730076
6.97039,3.91507,0.0733204
6.96964,3.91933,0.0736332
6.96889,3.92359,0.073946
6.96814,3.92784,0.0742588
6.96738,3.9321,0.0745716
6.96663,3.93636,0.0748844
6.96588,3.94062,0.0751972
6.54812,6.30517,0.248833
6.54737,6.3094,0.249142
6.54662,6.31363,0.249454
6.54588,6.31786,0.249763
6.54513,6.3221,0.250076
5.83835,6.83735,0.905043
4.89111,7.83698,1.75081
4.89043,7.84095,1.75107
4.88975,7.84492,1.75134
4.55548,9.80073,1.88366
4.5548,9.80469,1.88393
4.55413,9.80864,1.8842
6.98292,3.85169,0.0611038
6.98217,3.85595,0.0614147
6.98142,3.86021,0.0617294
6.98067,3.86447,0.0620384
6.97991,3.86873,0.062355
6.97916,3.87299,0.0626659
6.97841,3.87725,0.0629787
6.97765,3.88151,0.0632935
6.9769,3.88577,0.0636063
6.97615,3.89003,0.0639153
6.9754,3.89428,0.0642281
6.97464,3.89854,0.0645428
6.97389,3.9028,0.0648556
6.96637,3.94539,0.0679836
6.96561,3.94965,0.0682983
6.96486,3.95391,0.0686092
6.96411,3.95816,0.068924
6.96336,3.96242,0.0692329
6.9626,3.96668,0.0695496
6.96185,3.97094,0.0698586
6.9611,3.9752,0.0701714
6.96035,3.97946,0.0704842
6.95959,3.98371,0.0708008
6.95884,3.98797,0.0711117
6.95809,3.99223,0.0714245
6.95734,3.99649,0.0717373
6.556,6.26804,0.238567
6.55525,6.27228,0.238876
6.55451,6.27651,0.239185
6.55376,6.28074,0.239498
6.55301,6.28498,0.239807
6.55226,6.28921,0.24012
6.55152,6.29345,0.240429
6.55077,6.29768,0.240742
6.55002,6.30191,0.241051
5.84006,6.83429,0.897604
4.89462,7.82232,1.74298
4.89394,7.82629,1.74325
4.89326,7.83026,1.74352
4.89258,7.83423,1.74379
4.55418,9.81416,1.87775
4.55351,9.81812,1.87802
4.55284,9.82207,1.87829
4.55216,9.82602,1.87856
4.55149,9.82997,1.87882
6.95782,4.00127,0.0645237
6.95707,4.00553,0.0648327
6.95632,4.00979,0.0651455
6.95557,4.01405,0.0654602
6.95481,4.0183,0.065773
6.95406,4.02256,0.0660858
6.95331,4.02682,0.0663986
6.95256,4.03108,0.0667114
6.95181,4.03534,0.0670242
6.95106,4.0396,0.0673351
6.5609,6.24784,0.229534
6.56015,6.25208,0.229847
6.5594,6.25631,0.23016
6.55865,6.26055,0.230467
6.55791,6.26478,0.23078
5.84177,6.83123,0.89016
4.9022,7.78384,1.73354
4.90152,7.78781,1.73381
4.90084,7.79178,1.73408
4.90016,7.79574,1.73435
4.89948,7.79971,1.73462
4.89881,7.80368,1.73489
4.89813,7.80765,1.73516
4.89745,7.81162,1.73542
4.89677,7.81559,1.73569
4.89609,7.81956,1.73596
4.55154,9.8355,1.87238
4.55086,9.83945,1.87265
4.55019,9.8434,1.87292
4.54951,9.84736,1.87318
4.54884,9.85131,1.87345
4.54816,9.85526,1.87372
4.54749,9.85921,1.87398
4.54681,9.86316,1.87425
4.54614,9.86712,1.87452
4.54546,9.87107,1.87478
6.95154,4.04439,0.0601196
6.95078,4.04865,0.0604343
6.95003,4.05291,0.0607471
6.94928,4.05717,0.0610619
6.94853,4.06142,0.0613747
6.56355,6.24034,0.221439
6.5628,6.24457,0.221748
4.90775,7.75725,1.72491
4.90707,7.76122,1.72518
4.90639,7.76519,1.72545
4.90571,7.76916,1.72572
4.90503,7.77313,1.72598
4.90435,7.7771,1.72625
4.90368,7.78107,1.72652
4.54552,9.87661,1.86834
4.54484,9.88056,1.8686
4.54416,9.88451,1.86888
4.54349,9.88847,1.86914
4.54281,9.89242,1.86941
4.54214,9.89637,1.86967
4.54146,9.90032,1.86994
4.54079,9.90427,1.87021
4.54011,9.90823,1.87048
6.94901,4.06622,0.0541534
6.94826,4.07048,0.0544662
6.9475,4.07474,0.054781
6.94675,4.079,0.0550919
6.946,4.08326,0.0554085
6.56695,6.22859,0.213026
6.5662,6.23283,0.213337
6.56546,6.23707,0.213644
5.84449,6.82923,0.875547
4.91126,7.74256,1.71708
4.91058,7.74653,1.71734
4.9099,7.7505,1.71761
4.90922,7.75447,1.71788
4.54016,9.91377,1.86403
4.53949,9.91773,1.8643
4.53881,9.92168,1.86456
4.53814,9.92563,1.86483
4.53746,9.92959,1.8651
4.53679,9.93354,1.86537
4.53611,9.93749,1.86563
4.53543,9.94144,1.8659
4.53476,9.9454,1.86617
4.53408,9.94935,1.86644
4.53341,9.9533,1.8667
4.53273,9.95726,1.86697
4.53206,9.96121,1.86724
4.53138,9.96516,1.86751
4.53071,9.96911,1.86777
4.53003,9.97306,1.86804
4.52936,9.97702,1.86831
4.52868,9.98097,1.86858
4.52801,9.98492,1.86884
4.52733,9.98887,1.86911
4.52666,9.99283,1.86938
4.52598,9.99678,1.86965
4.5253,10.0007,1.86992
4.52463,10.0047,1.87018
4.52395,10.0086,1.87045
4.52328,10.0126,1.87072
6.94648,4.08806,0.0481853
6.94573,4.09232,0.0485001
6.94498,4.09658,0.0488091
6.94423,4.10084,0.0491238
6.94347,4.1051,0.0494366
6.56961,6.22108,0.204918
6.56886,6.22532,0.205231
5.8462,6.82616,0.868095
4.91342,7.73581,1.70978
4.91274,7.73978,1.71004
4.52333,10.0182,1.86427
4.52265,10.0221,1.86454
4.52198,10.0261,1.8648
4.5213,10.03,1.86507
6.94396,4.10991,0.0422134
6.9432,4.11417,0.0425262
6.94245,4.11843,0.0428429
6.9417,4.12269,0.0431538
6.94094,4.12695,0.0434666
6.94019,4.13122,0.0437794
6.92589,4.21216,0.0497284
6.92513,4.21642,0.0500431
6.92438,4.22068,0.050354
6.92363,4.22494,0.0506668
6.92288,4.2292,0.0509815
6.92213,4.23346,0.0512905
6.92137,4.23772,0.0516071
6.92062,4.24198,0.0519199
6.91987,4.24624,0.0522327
6.91912,4.2505,0.0525436
6.91836,4.25476,0.0528564
6.91761,4.25902,0.0531712
6.91685,4.26328,0.0534859
6.91611,4.26754,0.0537949
6.91535,4.2718,0.0541115
6.9146,4.27605,0.0544224
6.91385,4.28031,0.0547371
6.91309,4.28457,0.0550499
6.91234,4.28883,0.0553627
6.91159,4.29309,0.0556736
6.91084,4.29735,0.0559883
6.91008,4.30161,0.0563011
6.90933,4.30587,0.0566158
6.90858,4.31013,0.0569286
6.90783,4.31438,0.0572414
6.90707,4.31864,0.0575523
6.90632,4.3229,0.057869
6.90557,4.32716,0.0581799
6.90482,4.33142,0.0584927
6.90406,4.33568,0.0588055
6.90331,4.33994,0.0591183
6.90256,4.3442,0.0594311
6.90181,4.34845,0.0597439
6.90106,4.35271,0.0600567
6.57301,6.20933,0.196497
6.57226,6.21357,0.19681
6.57151,6.21781,0.197121
5.84863,6.81897,0.860359
5.84792,6.8231,0.860643
4.91558,7.72906,1.70247
4.9149,7.73303,1.70274
4.52135,10.0356,1.85862
4.52068,10.0395,1.85889
4.52,10.0435,1.85916
6.94067,4.13603,0.0365543
6.93992,4.14029,0.036869
6.93917,4.14455,0.0371799
6.93841,4.14881,0.0374966
6.93766,4.15307,0.0378075
6.93691,4.15734,0.0381203
6.93615,4.1616,0.038435
6.9354,4.16586,0.0387478
6.93465,4.17012,0.0390587
6.9339,4.17438,0.0393734
6.93314,4.17864,0.0396881
6.93239,4.1829,0.0400009
6.93164,4.18716,0.0403137
6.93088,4.19142,0.0406246
6.93013,4.19569,0.0409393
6.92938,4.19995,0.0412502
6.92863,4.20421,0.041563
6.92787,4.20847,0.0418777
6.90153,4.35757,0.0528374
6.90078,4.36183,0.0531483
6.90002,4.36609,0.0534649
6.89927,4.37034,0.0537758
6.89852,4.3746,0.0540905
6.57567,6.20181,0.188389
6.57492,6.20605,0.188698
5.85034,6.81591,0.8529
4.91774,7.7223,1.69517
4.91706,7.72627,1.69544
4.52005,10.0491,1.8527
4.51937,10.053,1.85297
4.5187,10.057,1.85324
4.51802,10.0609,1.8535
6.89899,4.37946,0.0468655
6.89824,4.38372,0.0471783
6.89749,4.38798,0.047493
6.88319,4.46891,0.0534439
6.88244,4.47317,0.053751
6.88168,4.47743,0.0540695
6.88093,4.48169,0.0543766
6.88018,4.48594,0.0546951
6.87943,4.4902,0.0550041
6.87867,4.49446,0.0553207
6.87792,4.49872,0.0556278
6.87717,4.50298,0.0559464
6.87642,4.50724,0.0562572
6.87566,4.51149,0.0565739
6.87491,4.51575,0.0568829
6.87416,4.52001,0.0571976
6.87341,4.52427,0.0575104
6.87265,4.52853,0.0578251
6.8719,4.53279,0.0581379
6.57833,6.19429,0.180273
6.57758,6.19853,0.180582
5.85348,6.80459,0.844866
5.85277,6.80872,0.845152
5.85206,6.81284,0.845438
4.91922,7.71952,1.68813
4.51807,10.0665,1.84705
4.5174,10.0705,1.84732
4.51672,10.0744,1.84759
4.51604,10.0784,1.84785
6.89796,4.39285,0.0402679
6.89721,4.39711,0.0405807
6.89646,4.40137,0.0408916
6.8957,4.40563,0.0412083
6.88667,4.45675,0.0449638
6.88592,4.46101,0.0452785
6.88516,4.46527,0.0455914
6.87237,4.53768,0.0509148
6.87162,4.54194,0.0512276
6.87086,4.54619,0.0515404
6.87011,4.55045,0.0518551
6.86936,4.55471,0.0521679
6.86861,4.55897,0.0524788
6.86786,4.56323,0.0527935
6.8671,4.56749,0.0531063
6.86635,4.57175,0.0534191
6.86559,4.576,0.0537357
6.86485,4.58026,0.0540447
6.86409,4.58452,0.0543613
6.86334,4.58878,0.0546722
6.86259,4.59304,0.054985
6.86184,4.5973,0.0552998
6.86108,4.60156,0.0556107
6.86033,4.60581,0.0559235
6.85958,4.61007,0.0562382
6.85883,4.61433,0.0565491
6.85807,4.61859,0.0568638
6.58099,6.18677,0.172152
6.58024,6.19101,0.172462
5.85733,6.78914,0.836546
5.85662,6.79327,0.836834
5.85591,6.7974,0.837116
5.8552,6.80152,0.837402
4.92139,7.71276,1.68082
4.9207,7.71673,1.68109
4.5161,10.084,1.84139
4.51542,10.0879,1.84166
4.51475,10.0919,1.84193
6.89618,4.41049,0.0339794
6.89542,4.41476,0.0342941
6.89467,4.41902,0.034605
6.89392,4.42328,0.0349197
6.89317,4.42754,0.0352306
6.89241,4.4318,0.0355453
6.89166,4.43606,0.0358582
6.89091,4.44032,0.036171
6.89015,4.44458,0.0364857
6.8894,4.44884,0.0367985
6.88865,4.4531,0.0371113
6.85854,4.6235,0.0496387
6.85779,4.62775,0.0499554
6.85703,4.63201,0.0502663
6.85628,4.63627,0.050581
6.85553,4.64053,0.05089
6.5829,6.18348,0.164341
5.8619,6.76956,0.827938
5.86119,6.77369,0.828224
5.86048,6.77782,0.828506
5.85976,6.78194,0.828793
5.85905,6.78607,0.829079
4.92355,7.706,1.67351
4.92287,7.70997,1.67378
4.5148,10.0974,1.83547
4.51412,10.1014,1.83574
4.51344,10.1054,1.83601
4.49519,10.2122,1.84324
4.49451,10.2161,1.84351
4.49384,10.2201,1.84377
6.856,4.64544,0.0436687
6.85525,4.6497,0.0439777
6.85449,4.65396,0.0442944
6.85374,4.65822,0.0446072
6.58556,6.17595,0.156218
6.58481,6.1802,0.156525
5.86433,6.76236,0.820183
5.86362,6.76649,0.820465
4.92571,7.69923,1.66619
4.92503,7.70321,1.66646
4.51349,10.1109,1.82955
4.51282,10.1149,1.82981
4.51214,10.1189,1.83008
4.51146,10.1228,1.83035
4.50064,10.1861,1.83464
4.49997,10.1901,1.83491
4.49929,10.194,1.83517
4.49862,10.198,1.83544
4.49794,10.2019,1.83571
4.49726,10.2059,1.83598
4.49659,10.2099,1.83624
4.49388,10.2257,1.83732
4.49321,10.2296,1.83758
4.49253,10.2336,1.83785
4.49185,10.2375,1.83812
4.49118,10.2415,1.83839
4.4905,10.2455,1.83866
4.48982,10.2494,1.83892
6.8542,4.66314,0.0373783
6.85345,4.6674,0.0376911
6.8527,4.67166,0.0380058
6.85195,4.67592,0.0383186
6.58822,6.16842,0.148085
6.58747,6.17266,0.148397
5.86748,6.75102,0.812134
5.86676,6.75515,0.812422
5.86605,6.75928,0.812706
4.92924,7.68451,1.65833
4.92856,7.68849,1.6586
4.92788,7.69246,1.65887
4.9272,7.69644,1.65914
4.51151,10.1284,1.82388
4.51084,10.1324,1.82415
4.51016,10.1363,1.82442
4.50948,10.1403,1.82469
4.5061,10.1601,1.82603
4.50542,10.164,1.8263
4.50475,10.168,1.82656
4.50407,10.1719,1.82683
4.5034,10.1759,1.8271
4.50272,10.1799,1.82737
4.50204,10.1838,1.82764
4.48987,10.255,1.83246
4.48919,10.259,1.83273
4.48852,10.2629,1.833
4.48784,10.2669,1.83327
4.48717,10.2708,1.83353
6.85241,4.68084,0.0310898
6.85166,4.6851,0.0314026
6.8509,4.68936,0.0317154
6.85015,4.69362,0.0320263
6.8494,4.69788,0.0323429
6.84865,4.70214,0.0326557
6.84789,4.7064,0.0329704
6.84714,4.71066,0.0332813
6.84639,4.71492,0.033596
6.84564,4.71919,0.0339088
6.84488,4.72345,0.0342216
6.84413,4.72771,0.0345364
6.84337,4.73197,0.0348492
6.84262,4.73623,0.035162
6.84187,4.74049,0.0354767
6.84112,4.74475,0.0357876
6.84036,4.74901,0.0361023
6.83961,4.75327,0.0364132
6.83886,4.75753,0.0367298
6.83811,4.76179,0.0370426
6.83735,4.76605,0.0373535
6.8366,4.77031,0.0376682
6.83585,4.77457,0.0379829
6.8351,4.77883,0.0382957
6.83434,4.78309,0.0386124
6.83359,4.78735,0.0389214
6.83284,4.79161,0.0392361
6.83208,4.79587,0.0395489
6.83133,4.80013,0.0398617
6.83058,4.80439,0.0401764
6.82983,4.80864,0.0404892
6.82907,4.8129,0.0408058
6.82832,4.81716,0.0411167
6.59014,6.16513,0.140266
5.8692,6.74794,0.804657
4.93684,7.64591,1.64885
4.93616,7.64989,1.64912
4.93548,7.65387,1.64939
4.9348,7.65784,1.64966
4.93412,7.66182,1.64993
4.93344,7.6658,1.6502
4.93276,7.66978,1.65047
4.93208,7.67376,1.65074
4.9314,7.67774,1.65101
4.93072,7.68172,1.65128
4.50953,10.1459,1.81822
4.50886,10.1498,1.81849
4.50818,10.1538,1.81876
4.5075,10.1578,1.81903
4.48721,10.2765,1.82707
4.48653,10.2804,1.82734
4.48586,10.2844,1.82761
4.48518,10.2883,1.82787
4.48451,10.2923,1.82814
7.71152,-3.93052,0.0578671
7.71079,-3.92629,0.0581627
7.71007,-3.92207,0.0584507
7.70934,-3.91784,0.0587463
7.70861,-3.91361,0.0590382
7.70788,-3.90939,0.0593319
7.70715,-3.90516,0.0596237
7.70642,-3.90093,0.0599136
7.70569,-3.89671,0.0602093
7.70496,-3.89248,0.060503
7.70424,-3.88825,0.0607948
7.70351,-3.88403,0.0610886
7.70278,-3.8798,0.0613804
7.70205,-3.87557,0.0616722
7.70132,-3.87135,0.0619659
7.70059,-3.86712,0.0622578
7.69986,-3.8629,0.0625496
7.69914,-3.85867,0.0628433
7.69841,-3.85444,0.0631371
7.69768,-3.85022,0.0634308
7.69695,-3.84599,0.0637188
7.69622,-3.84176,0.0640125
7.69549,-3.83754,0.0643082
7.69476,-3.83331,0.0646019
7.69404,-3.82909,0.0648899
6.82878,4.82211,0.0338879
6.82803,4.82637,0.0341988
6.82728,4.83063,0.0345135
6.82652,4.83489,0.0348282
6.82577,4.83915,0.0351391
6.82502,4.84341,0.0354538
6.82426,4.84767,0.0357685
6.82351,4.85193,0.0360794
6.79717,5.001,0.0470448
6.79642,5.00526,0.0473595
6.79567,5.00952,0.0476742
6.79491,5.01378,0.0479851
6.79416,5.01803,0.0482998
6.79341,5.02229,0.0486145
6.79266,5.02655,0.0489254
6.7919,5.03081,0.0492382
6.79115,5.03507,0.049551
6.5928,6.15759,0.132132
6.59205,6.16184,0.132441
5.87163,6.74072,0.796892
5.87092,6.74485,0.797178
4.94105,7.62719,1.64072
4.94037,7.63117,1.64099
4.93969,7.63515,1.64126
4.93901,7.63913,1.64153
4.93833,7.64311,1.6418
4.48455,10.2979,1.82168
4.48388,10.3019,1.82194
4.4832,10.3058,1.82221
4.48252,10.3098,1.82248
7.71655,-3.95269,0.0489788
7.71582,-3.94846,0.0492706
7.7151,-3.94424,0.0495644
7.71437,-3.94001,0.0498581
7.71364,-3.93578,0.0501499
7.69468,-3.82587,0.0577641
7.69396,-3.82165,0.058054
7.69323,-3.81742,0.0583477
7.6925,-3.81319,0.0586395
7.69177,-3.80897,0.0589333
6.82397,4.85689,0.0288486
6.82322,4.86115,0.0291615
6.82247,4.86541,0.0294724
6.82171,4.86967,0.0297871
6.82096,4.87393,0.0301018
6.82021,4.87819,0.0304146
6.81946,4.88245,0.0307274
6.8187,4.88671,0.0310421
6.81795,4.89097,0.0313587
6.8172,4.89523,0.0316696
6.81644,4.89949,0.0319824
6.81569,4.90375,0.0322952
6.81494,4.90801,0.0326099
6.81418,4.91227,0.0329247
6.81343,4.91653,0.0332355
6.81268,4.92079,0.0335484
6.81193,4.92505,0.033865
6.81117,4.92931,0.0341759
6.81042,4.93357,0.0344906
6.80967,4.93783,0.0348015
6.80892,4.94209,0.0351162
6.80816,4.94635,0.035429
6.80515,4.96339,0.0366821
6.8044,4.96765,0.0369968
6.80365,4.97191,0.0373116
6.80289,4.97617,0.0376225
6.80214,4.98043,0.0379372
6.80139,4.98469,0.0382519
6.80064,4.98895,0.0385628
6.79988,4.99321,0.0388775
6.79913,4.99747,0.0391884
6.7916,5.04006,0.042326
6.79085,5.04431,0.0426388
6.7901,5.04857,0.0429497
6.78935,5.05283,0.0432625
6.59622,6.1458,0.123678
6.59547,6.15005,0.123991
6.59472,6.1543,0.124302
5.87407,6.7335,0.789124
5.87335,6.73764,0.789408
4.9439,7.61642,1.63312
4.94322,7.6204,1.63339
4.94254,7.62438,1.63366
4.48257,10.3154,1.81601
4.48189,10.3194,1.81628
4.48121,10.3233,1.81655
4.48054,10.3273,1.81682
4.47986,10.3312,1.81709
4.47107,10.3827,1.82057
4.47039,10.3867,1.82084
4.46971,10.3906,1.82111
4.46904,10.3946,1.82138
4.46836,10.3985,1.82165
4.46768,10.4025,1.82191
4.46701,10.4064,1.82218
7.77847,-4.30484,0.0172291
7.77775,-4.30061,0.0175209
7.77702,-4.29638,0.0178146
7.77629,-4.29215,0.0181084
7.72377,-3.98756,0.0392036
7.72304,-3.98333,0.0394974
7.72231,-3.9791,0.039793
7.72158,-3.97487,0.0400848
7.72085,-3.97064,0.0403767
7.72013,-3.96641,0.0406704
7.71939,-3.96219,0.0409641
7.71867,-3.95796,0.041256
7.69242,-3.80575,0.0518017
7.6917,-3.80152,0.0520897
7.69097,-3.79729,0.0523853
7.67347,-3.69585,0.0594158
7.67274,-3.69162,0.0597076
7.67202,-3.6874,0.0599957
7.67129,-3.68317,0.0602894
7.67056,-3.67895,0.0605831
7.66983,-3.67472,0.0608788
7.6691,-3.67049,0.0611706
7.66837,-3.66627,0.0614605
7.66764,-3.66204,0.0617561
7.66691,-3.65781,0.062048
7.66619,-3.65359,0.0623398
7.66546,-3.64936,0.0626316
7.66473,-3.64514,0.0629234
7.664,-3.64091,0.0632172
6.80862,4.95133,0.0282001
6.80787,4.95559,0.0285091
6.80711,4.95985,0.0288239
6.7898,5.05783,0.0360355
6.78905,5.06208,0.0363483
6.7883,5.06634,0.0366631
6.61765,6.03205,0.107718
6.6169,6.03629,0.108032
6.61615,6.04054,0.108345
6.6154,6.04479,0.108656
6.61465,6.04904,0.108971
6.6139,6.05329,0.109285
6.61315,6.05754,0.109596
6.6124,6.06179,0.109909
6.61164,6.06604,0.110222
6.6109,6.07029,0.110533
6.61014,6.07453,0.110847
6.60939,6.07878,0.111158
6.60864,6.08303,0.111469
6.60789,6.08728,0.111784
6.60714,6.09153,0.112097
6.60039,6.12976,0.114912
6.59963,6.13401,0.115223
6.59888,6.13826,0.115534
6.59813,6.14251,0.11585
5.87579,6.73042,0.781635
4.94607,7.60963,1.62579
4.94539,7.61361,1.62606
4.4799,10.3369,1.81062
4.47923,10.3408,1.81088
4.47855,10.3448,1.81115
4.47787,10.3488,1.81142
4.4772,10.3527,1.81169
4.47652,10.3567,1.81196
4.47584,10.3606,1.81223
4.47517,10.3646,1.81249
4.47449,10.3685,1.81276
4.47381,10.3725,1.81303
4.47314,10.3765,1.8133
4.47246,10.3804,1.81356
4.46705,10.4121,1.81571
4.46637,10.416,1.81598
4.46569,10.42,1.81625
4.46502,10.424,1.81652
4.46434,10.4279,1.81679
4.46367,10.4319,1.81705
7.80104,-4.42872,0.00128365
7.80031,-4.42448,0.00157738
7.79958,-4.42025,0.00187302
7.79885,-4.41601,0.00216484
7.79812,-4.41178,0.00245667
7.79739,-4.40755,0.0027504
7.79666,-4.40331,0.00304413
7.79593,-4.39908,0.00333786
7.7952,-4.39485,0.00362968
7.78425,-4.33135,0.00802994
7.78352,-4.32711,0.00832558
7.78279,-4.32288,0.00861549
7.78206,-4.31865,0.00890732
7.78133,-4.31442,0.00920296
7.7806,-4.31018,0.00949669
7.77695,-4.28902,0.0109596
7.77622,-4.28479,0.0112553
7.77549,-4.28055,0.0115471
7.77477,-4.27632,0.0118408
7.77404,-4.27209,0.0121326
7.75214,-4.14513,0.0209312
7.75142,-4.1409,0.0212212
7.75069,-4.13667,0.0215168
7.74047,-4.07744,0.0256195
7.73974,-4.07321,0.0259132
7.73901,-4.06898,0.026207
7.73828,-4.06475,0.0264988
7.73755,-4.06052,0.0267925
7.73683,-4.05629,0.0270844
7.7361,-4.05206,0.0273762
7.73537,-4.04783,0.0276718
7.73464,-4.0436,0.0279617
7.73391,-4.03936,0.0282593
7.73318,-4.03513,0.0285511
7.73245,-4.03091,0.0288391
7.73172,-4.02667,0.0291367
7.73099,-4.02244,0.0294285
7.73026,-4.01821,0.029726
7.72953,-4.01398,0.0300159
7.7288,-4.00975,0.0303078
7.72807,-4.00552,0.0306034
7.72734,-4.00129,0.0308952
7.72661,-3.99706,0.031189
7.72589,-3.99283,0.0314808
7.69161,-3.79407,0.0452499
7.69089,-3.78984,0.0455437
7.69016,-3.78562,0.0458336
7.67922,-3.7222,0.0502281
7.67849,-3.71797,0.0505238
7.67776,-3.71375,0.0508175
7.67704,-3.70952,0.0511093
7.67631,-3.70529,0.0513992
7.67558,-3.70106,0.051693
7.66464,-3.63766,0.0560875
7.66392,-3.63343,0.0563793
7.66319,-3.62921,0.056673
7.66246,-3.62498,0.0569649
7.66173,-3.62075,0.0572586
7.61073,-3.32499,0.0777473
7.61001,-3.32077,0.0780411
7.60928,-3.31655,0.0783329
7.60855,-3.31232,0.0786247
7.60782,-3.3081,0.0789185
7.60709,-3.30388,0.0792103
7.60637,-3.29965,0.0795021
6.78875,5.07134,0.0294266
6.788,5.0756,0.0297413
6.78724,5.07986,0.030056
6.62333,6.00747,0.0983181
6.62258,6.01172,0.0986328
6.62183,6.01597,0.0989456
6.62107,6.02022,0.0992584
6.62033,6.02447,0.0995712
6.61958,6.02872,0.0998821
6.60756,6.09672,0.104889
6.60681,6.10097,0.105202
6.60606,6.10522,0.105513
6.60531,6.10946,0.105827
6.60456,6.11371,0.10614
6.60381,6.11796,0.106451
6.60305,6.12221,0.106766
6.6023,6.12646,0.107077
5.87823,6.72319,0.773861
5.87751,6.72733,0.774149
4.94824,7.60284,1.61846
4.94756,7.60682,1.61872
4.46371,10.4375,1.81058
4.46303,10.4415,1.81085
4.46235,10.4454,1.81112
4.46168,10.4494,1.81139
7.80463,-4.44255,-0.00703812
7.80391,-4.43832,-0.00675011
7.80317,-4.43408,-0.00645447
7.79587,-4.39174,-0.00352097
7.79514,-4.3875,-0.00322342
7.79441,-4.38327,-0.0029335
7.79368,-4.37903,-0.00263786
7.79295,-4.3748,-0.00234413
7.79222,-4.37057,-0.00205421
7.79149,-4.36633,-0.00176048
7.79076,-4.3621,-0.00146675
7.79003,-4.35786,-0.00117111
7.7893,-4.35363,-0.00087738
7.78857,-4.3494,-0.000587463
7.78784,-4.34516,-0.000289917
7.78711,-4.34093,1.90735e-06
7.78638,-4.33669,0.000295639
7.7747,-4.26896,0.00498962
7.77397,-4.26472,0.00528145
7.77324,-4.26049,0.00557327
7.76011,-4.1843,0.0108509
7.75937,-4.18007,0.0111446
7.75864,-4.17584,0.0114384
7.75791,-4.1716,0.011734
7.75719,-4.16737,0.0120239
7.75646,-4.16314,0.0123158
7.75573,-4.15891,0.0126114
7.755,-4.15467,0.0129051
7.75427,-4.15044,0.0131969
7.75135,-4.13351,0.0143719
7.75062,-4.12928,0.0146637
7.74989,-4.12505,0.0149574
7.74916,-4.12082,0.0152531
7.74843,-4.11659,0.0155468
7.7477,-4.11236,0.0158348
7.74697,-4.10812,0.0161324
7.74624,-4.10389,0.0164242
7.74551,-4.09966,0.016716
7.74478,-4.09543,0.0170078
7.74405,-4.0912,0.0173016
7.74332,-4.08696,0.0175972
7.74259,-4.08273,0.0178909
7.69081,-3.78239,0.0387001
7.69008,-3.77816,0.0389919
7.68935,-3.77393,0.0392857
7.68862,-3.76971,0.0395775
7.68497,-3.74856,0.0410442
7.68424,-3.74433,0.0413361
7.68351,-3.74011,0.0416298
7.68279,-3.73588,0.0419216
7.68206,-3.73165,0.0422134
7.68133,-3.72742,0.0425072
7.66238,-3.6175,0.0501232
7.66165,-3.61327,0.0504169
7.66092,-3.60904,0.0507107
7.66019,-3.60482,0.0510025
7.62886,-3.42309,0.0635929
7.62812,-3.41886,0.0638866
7.6274,-3.41463,0.0641785
7.62667,-3.41041,0.0644722
7.62594,-3.40618,0.064764
7.62521,-3.40196,0.0650578
7.62448,-3.39773,0.0653496
7.62302,-3.38928,0.065937
7.6223,-3.38506,0.0662308
7.6172,-3.35548,0.0682774
7.61647,-3.35126,0.0685692
7.61574,-3.34703,0.0688629
7.61501,-3.34281,0.0691566
7.61428,-3.33858,0.0694485
7.61356,-3.33436,0.0697422
7.61283,-3.33013,0.0700378
7.607,-3.29634,0.0723763
7.60627,-3.29211,0.07267
7.60555,-3.28789,0.0729599
7.60481,-3.28366,0.0732536
7.60409,-3.27944,0.0735474
7.60336,-3.27522,0.0738392
7.60263,-3.27099,0.0741348
7.6019,-3.26677,0.0744247
7.60118,-3.26254,0.0747166
7.58952,-3.19496,0.0793991
7.58879,-3.19074,0.0796928
7.58807,-3.18652,0.0799828
7.58734,-3.18229,0.0802784
7.58661,-3.17807,0.0805702
7.58588,-3.17385,0.080864
7.58515,-3.16962,0.0811558
7.58442,-3.1654,0.0814476
7.5837,-3.16118,0.0817394
7.58297,-3.15695,0.0820351
7.58224,-3.15273,0.0823269
7.58151,-3.14851,0.0826168
7.58078,-3.14429,0.0829105
7.58006,-3.14006,0.0832024
7.57933,-3.13584,0.0834942
7.5786,-3.13162,0.0837879
7.57787,-3.12739,0.0840797
7.57714,-3.12317,0.0843735
7.57642,-3.11895,0.0846653
6.7877,5.08486,0.0228195
6.78694,5.08912,0.0231323
6.78619,5.09339,0.023447
6.78544,5.09765,0.0237598
6.78469,5.10191,0.0240726
6.62901,5.98289,0.0889168
6.62826,5.98714,0.0892277
6.62751,5.99139,0.0895405
6.62675,5.99564,0.0898552
6.626,5.9999,0.090168
6.62525,6.00415,0.0904789
5.88066,6.71597,0.766087
5.87995,6.7201,0.766369
4.95041,7.59605,1.61112
4.94973,7.60003,1.61139
4.46172,10.4551,1.80491
4.46104,10.459,1.80518
4.46036,10.463,1.80545
7.86302,-4.77418,-0.0373898
7.86229,-4.76994,-0.0370941
7.86156,-4.76571,-0.0368004
7.86083,-4.76147,-0.0365067
7.8075,-4.45216,-0.0150776
7.80676,-4.44792,-0.014782
7.77391,-4.25736,-0.00157738
7.77318,-4.25312,-0.00128365
7.76515,-4.20655,0.00194359
7.76442,-4.20232,0.00223923
7.76369,-4.19808,0.00253105
7.76296,-4.19385,0.00282478
7.76223,-4.18962,0.00311661
7.68927,-3.76648,0.0324402
7.68854,-3.76225,0.0327282
7.68781,-3.75802,0.0330238
7.68708,-3.75379,0.0333176
7.66084,-3.60156,0.0438633
7.6601,-3.59733,0.0441589
7.65938,-3.5931,0.0444508
7.65865,-3.58888,0.0447445
7.63678,-3.46206,0.0535336
7.63605,-3.45783,0.0538254
7.63532,-3.4536,0.0541172
7.6346,-3.44938,0.054409
7.63387,-3.44515,0.0547028
7.63313,-3.44092,0.0549965
7.63241,-3.4367,0.0552902
7.63168,-3.43247,0.055584
7.63095,-3.42825,0.0558758
7.62512,-3.39444,0.0582161
7.62293,-3.38176,0.0590992
7.62221,-3.37753,0.059391
7.62148,-3.37331,0.0596809
7.62075,-3.36908,0.0599728
7.62002,-3.36485,0.0602665
7.61929,-3.36063,0.0605621
7.60181,-3.25922,0.0675869
7.60108,-3.255,0.0678806
7.60035,-3.25077,0.0681725
7.59962,-3.24655,0.0684643
7.59889,-3.24232,0.068758
7.59816,-3.2381,0.0690517
7.59744,-3.23387,0.0693417
7.59671,-3.22965,0.0696373
7.59598,-3.22542,0.0699291
7.59525,-3.2212,0.0702229
7.59452,-3.21697,0.0705166
7.5938,-3.21275,0.0708065
7.59307,-3.20853,0.0711002
7.59234,-3.2043,0.071394
7.59161,-3.20008,0.0716858
7.57704,-3.1156,0.0775414
7.57632,-3.11138,0.0778313
7.57559,-3.10715,0.078125
7.57486,-3.10293,0.0784168
7.57413,-3.0987,0.0787125
7.5734,-3.09448,0.0790024
7.57267,-3.09026,0.0792942
7.57195,-3.08604,0.079586
7.57122,-3.08181,0.0798817
7.57049,-3.07759,0.0801735
7.56612,-3.05225,0.0819283
7.56539,-3.04803,0.0822201
7.56466,-3.0438,0.0825157
7.56393,-3.03958,0.0828094
7.56321,-3.03536,0.0831013
7.56248,-3.03114,0.0833912
7.56175,-3.02691,0.083683
7.56102,-3.02269,0.0839767
7.56029,-3.01847,0.0842724
7.55957,-3.01425,0.0845623
7.55884,-3.01002,0.0848541
7.55811,-3.0058,0.0851479
7.55738,-3.00158,0.0854397
7.55665,-2.99735,0.0857353
7.55593,-2.99313,0.0860271
7.5552,-2.98891,0.0863171
7.55447,-2.98469,0.0866108
7.55374,-2.98047,0.0869026
7.55301,-2.97624,0.0871964
7.55229,-2.97202,0.0874882
7.44243,-2.3349,0.131638
7.44171,-2.33069,0.131931
7.44098,-2.32647,0.132221
7.44025,-2.32225,0.132511
7.43953,-2.31804,0.132805
7.4388,-2.31382,0.133099
7.43807,-2.30961,0.13339
7.43735,-2.30539,0.13368
7.43662,-2.30117,0.133974
7.43589,-2.29696,0.134266
7.43516,-2.29274,0.134558
7.43443,-2.28852,0.134851
7.43371,-2.28431,0.135143
6.78514,5.10691,0.0168381
6.78438,5.11118,0.017149
6.78363,5.11544,0.0174656
6.78288,5.1197,0.0177746
6.78213,5.12396,0.0180912
6.78137,5.12822,0.0184021
6.78062,5.13248,0.0187187
6.77987,5.13674,0.0190296
6.77911,5.141,0.0193443
6.75954,5.25178,0.0274963
6.75879,5.25604,0.027813
6.75803,5.2603,0.0281277
6.75728,5.26456,0.0284405
6.63394,5.96255,0.0798206
6.63319,5.9668,0.0801334
6.63243,5.97105,0.0804462
6.63169,5.97531,0.080759
6.63093,5.97956,0.0810719
5.88239,6.71287,0.758591
4.9519,7.59323,1.60405
4.4604,10.4686,1.79898
4.45973,10.4726,1.79924
4.45905,10.4766,1.79951
4.45837,10.4805,1.79978
4.4577,10.4845,1.80005
4.45702,10.4884,1.80032
7.86736,-4.79234,-0.0460205
7.86663,-4.7881,-0.0457287
7.8659,-4.78386,-0.0454369
7.86517,-4.77962,-0.0451412
7.86151,-4.75843,-0.0436707
7.86078,-4.75419,-0.0433788
7.86005,-4.74995,-0.0430851
7.81986,-4.51685,-0.0269299
7.81913,-4.51261,-0.0266361
7.81328,-4.47871,-0.0242863
7.81109,-4.466,-0.0234089
7.81036,-4.46177,-0.0231133
7.80963,-4.45753,-0.0228195
7.77384,-4.24998,-0.0084362
7.77312,-4.24575,-0.00814247
7.77238,-4.24152,-0.00785065
7.77165,-4.23728,-0.00755692
7.77093,-4.23305,-0.00726318
7.7702,-4.22881,-0.00696945
7.76946,-4.22458,-0.00667572
7.76873,-4.22034,-0.00638008
7.76801,-4.21611,-0.00609207
7.76727,-4.21187,-0.00579643
7.65929,-3.58561,0.0376072
7.65856,-3.58138,0.0379009
7.65783,-3.57716,0.0381908
7.6571,-3.57293,0.0384827
7.65638,-3.5687,0.0387783
7.64398,-3.49682,0.0437584
7.64325,-3.49259,0.0440521
7.64252,-3.48837,0.0443439
7.64179,-3.48414,0.0446377
7.64107,-3.47991,0.0449295
7.64034,-3.47568,0.0452213
7.63961,-3.47145,0.045517
7.63888,-3.46723,0.0458107
7.57112,-3.07423,0.0730457
7.57039,-3.07001,0.0733376
7.56966,-3.06578,0.0736332
7.56893,-3.06156,0.0739212
7.5682,-3.05734,0.0742149
7.55291,-2.96864,0.0803604
7.55218,-2.96442,0.0806561
7.55145,-2.9602,0.0809479
7.55073,-2.95597,0.0812397
7.55,-2.95175,0.0815353
7.54927,-2.94753,0.0818233
7.54854,-2.94331,0.082119
7.54781,-2.93908,0.0824127
7.54708,-2.93486,0.0827026
7.54636,-2.93064,0.0829945
7.54563,-2.92641,0.0832901
7.5449,-2.92219,0.0835838
7.54417,-2.91797,0.0838757
7.54345,-2.91375,0.0841656
7.54272,-2.90952,0.0844593
7.50123,-2.66891,0.101135
7.5005,-2.66469,0.101427
7.49977,-2.66047,0.101721
7.44667,-2.35249,0.123064
7.44594,-2.34828,0.123356
7.44522,-2.34406,0.123646
7.44449,-2.33984,0.12394
7.43431,-2.2808,0.128033
7.43358,-2.27659,0.128325
7.43285,-2.27237,0.128616
6.77956,5.14602,0.0121059
6.77881,5.15028,0.0124187
6.77806,5.15454,0.0127296
6.77731,5.1588,0.0130463
6.77655,5.16307,0.0133591
6.7758,5.16733,0.0136757
6.77505,5.17159,0.0139866
6.77429,5.17585,0.0143032
6.77354,5.18011,0.014616
6.77279,5.18437,0.0149326
6.77204,5.18864,0.0152397
6.76978,5.20142,0.0161839
6.76902,5.20568,0.0164967
6.76827,5.20994,0.0168114
6.76752,5.2142,0.0171261
6.76676,5.21846,0.0174389
6.76601,5.22272,0.0177536
6.76526,5.22698,0.0180664
6.7645,5.23125,0.0183811
6.76375,5.23551,0.018692
6.763,5.23977,0.0190086
6.76225,5.24403,0.0193195
6.76149,5.24829,0.0196362
6.75773,5.26959,0.0212002
6.75698,5.27385,0.0215187
6.75622,5.27811,0.0218296
6.75547,5.28238,0.0221424
6.75472,5.28664,0.0224552
6.63812,5.94645,0.0710316
6.63737,5.9507,0.0713463
6.63662,5.95496,0.0716591
6.63587,5.95921,0.0719738
5.88483,6.70564,0.750807
5.88412,6.70978,0.751093
4.95476,7.58245,1.59644
4.95407,7.58643,1.59671
4.9534,7.59042,1.59697
4.45706,10.4941,1.79385
4.45638,10.4981,1.79411
4.4557,10.502,1.79438
4.45503,10.506,1.79465
4.45435,10.5099,1.79492
4.45368,10.5139,1.79518
4.453,10.5179,1.79545
4.45232,10.5218,1.79572
4.45164,10.5258,1.79599
4.45097,10.5297,1.79626
4.45029,10.5337,1.79653
4.44961,10.5377,1.7968
4.44894,10.5416,1.79706
4.44826,10.5456,1.79733
4.44758,10.5495,1.7976
4.44691,10.5535,1.79787
4.44623,10.5575,1.79814
4.44555,10.5614,1.79841
4.44488,10.5654,1.79867
4.4442,10.5693,1.79894
4.44352,10.5733,1.79921
4.44285,10.5773,1.79948
4.44217,10.5812,1.79975
4.44149,10.5852,1.80002
7.87097,-4.80627,-0.0543671
7.87024,-4.80203,-0.0540714
7.86951,-4.79779,-0.0537777
7.86073,-4.7469,-0.0502491
7.86,-4.74266,-0.0499554
7.82346,-4.53071,-0.035265
7.82273,-4.52647,-0.034977
7.82199,-4.52223,-0.0346794
7.8198,-4.50952,-0.0337982
7.81907,-4.50528,-0.0335045
7.81834,-4.50105,-0.0332088
7.81761,-4.49681,-0.0329189
7.81688,-4.49257,-0.0326214
7.81615,-4.48833,-0.0323315
7.81542,-4.48409,-0.0320358
7.81396,-4.47562,-0.0314484
7.81323,-4.47138,-0.0311546
7.65702,-3.56543,0.0316372
7.65629,-3.5612,0.031929
7.65556,-3.55697,0.0322227
7.65483,-3.55275,0.0325146
7.6541,-3.54852,0.0328064
7.65337,-3.54429,0.0331001
7.65264,-3.54006,0.0333958
7.65191,-3.53583,0.0336895
7.65118,-3.5316,0.0339832
7.65046,-3.52737,0.0342712
7.64973,-3.52314,0.034565
7.649,-3.51891,0.0348606
7.64827,-3.51468,0.0351543
7.64754,-3.51046,0.0354481
7.64681,-3.50623,0.0357418
7.64608,-3.502,0.0360336
7.54334,-2.90613,0.0773335
7.54261,-2.90191,0.0776253
7.54188,-2.89769,0.0779171
7.54115,-2.89346,0.0782108
7.54043,-2.88924,0.0785007
7.5397,-2.88502,0.0787964
7.53897,-2.8808,0.0790882
7.53824,-2.87657,0.07938
7.53752,-2.87235,0.0796719
7.50985,-2.71191,0.0907917
7.50912,-2.70768,0.0910835
7.50839,-2.70346,0.0913792
7.50767,-2.69924,0.0916729
7.50694,-2.69502,0.0919647
7.50621,-2.6908,0.0922546
7.50548,-2.68658,0.0925484
7.50475,-2.68236,0.092844
7.50403,-2.67813,0.0931339
7.5033,-2.67391,0.0934258
7.50039,-2.65703,0.0945988
7.49966,-2.65281,0.0948906
7.49893,-2.64859,0.0951824
7.4982,-2.64437,0.0954742
7.49748,-2.64015,0.0957642
7.49675,-2.63592,0.0960598
7.49602,-2.6317,0.0963535
7.49529,-2.62748,0.0966434
7.44946,-2.36165,0.115068
7.44873,-2.35743,0.115362
7.43346,-2.26886,0.121502
7.43273,-2.26464,0.121794
6.77248,5.19366,0.00800323
6.77173,5.19792,0.00831223
6.75516,5.29168,0.0152168
6.75441,5.29594,0.0155315
6.75366,5.3002,0.0158443
6.7529,5.30446,0.0161591
6.65358,5.86652,0.0575447
6.65283,5.87078,0.0578575
6.65208,5.87503,0.0581703
6.65132,5.87929,0.058485
6.65057,5.88354,0.0587978
6.64982,5.8878,0.0591106
6.64907,5.89205,0.0594254
6.64832,5.89631,0.0597382
6.64757,5.90056,0.0600491
6.64681,5.90482,0.0603657
6.64606,5.90907,0.0606785
6.64531,5.91333,0.0609894
6.64456,5.91758,0.0613022
6.6438,5.92184,0.0616188
6.64306,5.92609,0.0619297
6.6423,5.93035,0.0622444
6.64155,5.9346,0.0625572
6.6408,5.93885,0.06287
6.64005,5.94311,0.0631828
5.88727,6.69841,0.743017
5.88656,6.70255,0.743303
4.95693,7.57565,1.58909
4.95625,7.57963,1.58936
4.44153,10.5909,1.79354
4.44085,10.5948,1.79381
4.44017,10.5988,1.79408
4.4395,10.6027,1.79434
4.43882,10.6067,1.79461
4.43814,10.6107,1.79488
7.87385,-4.81596,-0.062418
7.87312,-4.81172,-0.0621243
7.86069,-4.73962,-0.0571251
7.85995,-4.73538,-0.0568314
7.82706,-4.54458,-0.0436058
7.82633,-4.54034,-0.0433121
7.8256,-4.5361,-0.0430222
7.53813,-2.86895,0.0725441
7.53741,-2.86473,0.072834
7.53668,-2.8605,0.0731277
7.53595,-2.85628,0.0734234
7.53522,-2.85206,0.0737171
7.53449,-2.84783,0.0740051
7.51775,-2.7507,0.0807419
7.51702,-2.74648,0.0810337
7.51629,-2.74226,0.0813255
7.51556,-2.73803,0.0816193
7.51483,-2.73381,0.0819111
7.5141,-2.72959,0.0822029
7.51338,-2.72537,0.0824966
7.51265,-2.72114,0.0827885
7.51192,-2.71692,0.0830803
7.4959,-2.62404,0.0895195
7.49517,-2.61982,0.0898151
7.49445,-2.6156,0.090107
7.49372,-2.61137,0.0903988
7.45297,-2.37504,0.106779
7.45224,-2.37082,0.107073
7.45152,-2.3666,0.107365
7.43333,-2.26113,0.114676
7.4326,-2.25691,0.114967
7.40279,-2.084,0.126955
7.40206,-2.07978,0.127245
7.40133,-2.07557,0.127539
7.40061,-2.07135,0.127832
7.39988,-2.06713,0.128124
7.39915,-2.06292,0.128416
7.39843,-2.0587,0.128706
7.3977,-2.05448,0.129
7.39697,-2.05027,0.129293
7.39624,-2.04605,0.129587
7.39552,-2.04183,0.129877
7.39479,-2.03762,0.130169
7.39407,-2.0334,0.130461
7.39334,-2.02919,0.130754
7.37662,-1.93223,0.137474
7.37589,-1.92801,0.137766
7.37516,-1.9238,0.13806
7.37444,-1.91958,0.138351
7.37371,-1.91537,0.138643
7.37299,-1.91115,0.138935
7.37226,-1.90694,0.139227
7.37153,-1.90272,0.139521
7.37081,-1.89851,0.139811
7.37008,-1.89429,0.140104
7.36935,-1.89008,0.140396
7.36863,-1.88586,0.140686
6.75335,5.30951,0.00891495
6.7526,5.31377,0.00922966
6.75184,5.31803,0.00954437
6.75109,5.32229,0.00985909
6.75034,5.32656,0.0101719
6.67281,5.76527,0.0424805
6.67206,5.76952,0.0427895
6.67131,5.77378,0.0431061
6.67056,5.77804,0.0434189
6.6698,5.78229,0.0437336
6.66905,5.78655,0.0440483
6.6683,5.79081,0.044363
6.66755,5.79506,0.044672
6.66679,5.79932,0.0449867
6.66604,5.80358,0.0453014
6.66529,5.80783,0.0456123
6.66454,5.81209,0.045929
6.66379,5.81635,0.0462399
6.66303,5.8206,0.0465546
6.66228,5.82486,0.0468674
6.66153,5.82912,0.0471802
6.66078,5.83337,0.047493
6.66002,5.83763,0.0478077
6.65927,5.84189,0.0481205
6.65852,5.84614,0.0484352
6.65777,5.8504,0.0487499
6.65702,5.85465,0.0490589
6.65626,5.85891,0.0493755
6.65551,5.86317,0.0496883
5.88972,6.69117,0.735226
5.889,6.69531,0.73551
4.95911,7.56884,1.58174
4.95843,7.57283,1.58201
4.43818,10.6163,1.7884
4.4375,10.6203,1.78867
7.89648,-4.94021,-0.078413
7.89575,-4.93597,-0.0781193
7.89502,-4.93173,-0.0778255
7.89429,-4.92748,-0.0775337
7.89356,-4.92324,-0.0772362
7.89283,-4.91899,-0.0769444
7.87673,-4.82565,-0.0704765
7.876,-4.82141,-0.0701828
7.86064,-4.73233,-0.064003
7.82993,-4.55422,-0.0516586
7.8292,-4.54998,-0.051363
7.53511,-2.84443,0.0668774
7.53438,-2.84021,0.0671711
7.53366,-2.83598,0.0674591
7.53293,-2.83176,0.0677547
7.5322,-2.82753,0.0680466
7.53147,-2.82331,0.0683403
7.52273,-2.77262,0.0718555
7.52201,-2.7684,0.0721455
7.52127,-2.76417,0.0724392
