-10.7831,0.84227,0.014493
-10.8211,0.849457,0.00237846
-10.8592,0.856661,-0.00976658
-10.8974,0.863884,-0.021944
-11.4013,0.586106,0.0325289
-11.4407,0.593299,0.0201235
-11.4802,0.600511,0.0076828
-11.5197,0.60774,-0.00478935
-12.1216,0.312506,0.0391951
-12.1628,0.31978,0.0263596
-12.2041,0.327076,0.0134878
-12.2456,0.334394,0.000576973
-12.7759,0.078928,0.0366488
-12.8188,0.0862856,0.0233965
-12.8619,0.0936632,0.010108
-12.9051,0.101064,-0.00322342
-13.4146,-0.148265,0.0336714
-13.4594,-0.140823,0.0199881
-13.5043,-0.133359,0.00626373
-13.5493,-0.12587,-0.00750542
-14.123,-0.425623,0.0449963
-14.17,-0.418111,0.0308228
-14.217,-0.410576,0.0166054
-14.2642,-0.403016,0.00234222
-14.8769,-0.617074,-0.00273323
-14.9264,-0.609352,-0.0175667
-14.976,-0.601604,-0.0324507
-15.0258,-0.593829,-0.0473843
-15.4977,-0.853783,0.00353146
-15.5494,-0.845953,-0.0118361
-15.6014,-0.838096,-0.0272579
-15.6534,-0.830215,-0.0427275
15.5076,10.355,0.0236931
15.4974,10.361,0.0180998
15.4872,10.367,0.0124998
15.4769,10.3729,0.00689411
15.4667,10.3789,0.00128078
15.4564,10.3849,-0.00433922
14.93,10.185,0.00051403
14.9194,10.1909,-0.00514984
14.9088,10.1969,-0.0108223
14.8982,10.2029,-0.0165024
14.8876,10.2089,-0.0221872
14.877,10.2149,-0.0278797
14.2133,9.90554,0.0113544
14.2024,9.91151,0.00561142
14.1915,9.91749,-0.000138283
14.1806,9.92348,-0.00589561
14.1696,9.92947,-0.0116596
14.1587,9.93546,-0.0174294
14.1477,9.94147,-0.0232067
13.5032,9.63698,0.0172625
13.4919,9.64296,0.0114384
13.4806,9.64896,0.00560284
13.4694,9.65496,-0.000238419
13.4581,9.66097,-0.00608635
13.4467,9.66699,-0.0119438
12.81,9.37302,0.024087
12.7984,9.37901,0.0181789
12.7868,9.38503,0.0122604
12.7751,9.39104,0.00633335
12.7635,9.39707,0.000401497
12.7518,9.4031,-0.00553799
12.1721,9.17393,0.0050354
12.1601,9.17995,-0.000969887
12.1481,9.18599,-0.00698566
12.1361,9.19203,-0.0130053
12.124,9.19808,-0.0190363
12.1119,9.20414,-0.0250721
11.5105,8.91596,0.0150261
11.4981,8.92199,0.0089426
11.4857,8.92804,0.00284672
11.4734,8.93409,-0.00325775
11.4609,8.94015,-0.0093708
11.4485,8.94622,-0.0154915
10.8662,8.66169,0.0265169
10.8534,8.66773,0.0203514
10.8407,8.67379,0.0141754
10.828,8.67985,0.00799084
10.8152,8.68592,0.00179958
10.8024,8.692,-0.00440216
10.1165,8.39914,0.0206451
10.1033,8.40524,0.014349
10.0901,8.41135,0.00804424
10.0769,8.41748,0.00172901
10.0637,8.42361,-0.0045948
10.0505,8.42975,-0.0109262
9.47623,8.15218,0.0287647
9.46267,8.15826,0.022398
9.44909,8.16434,0.0160255
9.43549,8.17045,0.00963974
9.42187,8.17655,0.00325012
9.40823,8.18266,-0.00315094
8.84191,7.92634,0.0259275
8.82794,7.93245,0.0194588
8.81394,7.93856,0.0129814
8.79993,7.94469,0.00649357
8.7859,7.95083,-9.53674e-07
8.77185,7.95697,-0.00650597
8.09457,7.68158,0.0102644
8.08008,7.68772,0.00366879
8.06556,7.69387,-0.00294209
8.05102,7.70003,-0.00955772
8.03646,7.7062,-0.0161839
8.02188,7.71239,-0.0228214
7.49621,5.02418,1.42019
7.91921,7.7559,-0.0695505
6.64284,1.99487,2.99142
6.63268,1.99779,2.9876
6.62251,2.00071,2.98377
6.61232,2.00364,2.97994
6.60212,2.00657,2.9761
6.59191,2.00951,2.97226
6.09299,1.78311,2.99821
6.08251,1.78601,2.99433
6.07202,1.78892,2.99044
6.06151,1.79184,2.98655
6.05098,1.79476,2.98265
5.55619,1.58587,2.99934
5.54537,1.58879,2.99538
5.53453,1.59171,2.99141
5.52369,1.59464,2.98744
5.51283,1.59757,2.98346
5.50195,1.60051,2.97948
4.91906,1.35944,2.99626
4.90781,1.36238,2.99219
4.89656,1.36534,2.98812
4.88528,1.36829,2.98404
4.87399,1.37125,2.97996
4.86269,1.37421,2.97587
4.39085,3.86858,1.43518
4.14315,6.22673,0.0203323
4.12572,6.23298,0.0130558
4.10826,6.23924,0.00576687
4.09078,6.24551,-0.00153065
4.07326,6.25179,-0.00884247
4.05572,6.25808,-0.0161676
3.38936,5.96609,0.0124903
3.37128,5.97242,0.00502872
3.35316,5.97877,-0.00244617
3.33502,5.98512,-0.00993252
3.31684,5.99149,-0.0174322
3.10266,5.61013,0.157926
3.08461,5.61623,0.150607
3.06654,5.62235,0.143272
3.04843,5.62847,0.13593
3.0303,5.6346,0.128572
3.26013,3.81426,1.22887
3.24428,3.81907,1.22276
3.22841,3.82388,1.21664
3.18402,3.39762,1.45364
3.16855,3.40214,1.44778
3.15305,3.40667,1.4419
3.13754,3.41121,1.43602
3.12199,3.41575,1.43012
3.10643,3.4203,1.42422
2.58328,3.16145,1.46383
2.56731,3.16603,1.45783
2.55132,3.17063,1.45181
2.53531,3.17523,1.44578
2.51927,3.17984,1.43975
2.03442,2.90853,1.49461
2.01804,2.91307,1.48854
2.00164,2.91762,1.48247
1.98521,2.92218,1.47638
1.96876,2.92674,1.47028
1.3631,2.71783,1.46369
1.34605,2.72243,1.45745
1.32898,2.72704,1.45119
1.31188,2.73166,1.44493
1.29475,2.73628,1.43866
0.550117,2.50415,1.41627
0.532195,2.50884,1.40978
0.514242,2.51355,1.40329
0.496258,2.51826,1.39679
0.478243,2.52298,1.39027
-0.265888,2.344,1.33727
-0.284808,2.34884,1.33049
-0.303761,2.35369,1.32371
-0.322751,2.35856,1.3169
-0.341771,2.36342,1.31009
-1.0929,2.16951,1.26425
-1.11285,2.17446,1.25719
-1.13284,2.17943,1.25012
-1.15287,2.18439,1.24304
-1.17293,2.18937,1.23595
-2.88791,3.40495,0.172932
-3.33225,3.52137,0.0122414
-3.35741,3.52796,0.0031414
-3.38262,3.53457,-0.00597477
-3.40788,3.54119,-0.01511
-3.43319,3.54782,-0.0242643
-3.96795,3.29162,0.0113716
-3.99397,3.29828,0.00205231
-4.02005,3.30496,-0.00728607
-4.04618,3.31165,-0.0166473
-4.07236,3.31835,-0.0260239
-4.60936,3.04197,0.0208035
-4.63624,3.04864,0.0112991
-4.66317,3.05532,0.00177574
-4.69016,3.06202,-0.00776577
-4.7172,3.06872,-0.0173283
-5.39148,2.80437,-0.00630951
-5.41957,2.81117,-0.0161448
-5.44774,2.81798,-0.026
-5.47596,2.82481,-0.0358782
-6.02592,2.5716,-0.00516605
-6.05497,2.57842,-0.015213
-6.08409,2.58525,-0.0252819
-6.11326,2.59209,-0.0353708
-6.60994,2.29012,0.0347261
-6.6398,2.29688,0.0245399
-6.66973,2.30366,0.0143318
-6.69973,2.31046,0.00409794
-6.7298,2.31727,-0.00615883
-7.27603,2.06892,0.0225277
-7.30705,2.07576,0.0120544
-7.33813,2.08261,0.00156212
-7.36929,2.08949,-0.00896168
-8.03499,1.82316,0.00500107
-8.0674,1.8301,-0.00582504
-8.09989,1.83706,-0.0166779
-8.13246,1.84404,-0.0275574
-8.16511,1.85104,-0.0384655
-8.66653,1.57088,0.0180254
-8.70009,1.57785,0.00694275
-8.73373,1.58484,-0.00416374
-8.76745,1.59184,-0.0153027
-9.27759,1.32405,0.0322132
-9.31231,1.33104,0.0208712
-9.34713,1.33805,0.00950241
-9.38203,1.34508,-0.00189686
-10.0587,1.07298,0.0130987
-10.0951,1.08007,0.00134945
-10.1316,1.08718,-0.0104275
-10.1681,1.0943,-0.0222321
-10.6944,0.843604,0.0120173
-10.7322,0.850784,-8.58307e-05
-10.7701,0.857982,-0.0122213
-10.8082,0.8652,-0.0243893
-11.272,0.580001,0.0429201
-11.3111,0.587164,0.0305624
-11.3503,0.594348,0.0181694
-11.3896,0.601552,0.00574112
-11.429,0.608776,-0.00672054
-12.0292,0.313082,0.0379915
-12.0702,0.32035,0.0251694
-12.1113,0.327637,0.0123119
-12.1526,0.334947,-0.000583649
-12.6812,0.0791101,0.036128
-12.724,0.0864573,0.0228939
-12.7669,0.0938253,0.00962067
-12.8099,0.101216,-0.00369167
-13.3176,-0.148481,0.033865
-13.3622,-0.141049,0.0201998
-13.4069,-0.133595,0.00649357
-13.4518,-0.12612,-0.00725365
-14.0701,-0.41877,0.0318804
-14.1169,-0.411245,0.0176849
-14.1639,-0.4037,0.00344658
-14.7736,-0.618273,-0.000720978
-14.8228,-0.610565,-0.0155268
-14.8722,-0.60283,-0.0303841
-14.9218,-0.595072,-0.0452871
-15.3914,-0.855452,0.00647449
-15.4428,-0.847638,-0.00886154
-15.4945,-0.839798,-0.02425
-15.5463,-0.831932,-0.039691
15.6104,10.3513,0.0270844
15.6002,10.3573,0.0215034
15.5901,10.3632,0.0159168
15.5799,10.3692,0.0103235
15.5697,10.3752,0.0047226
15.5595,10.3811,-0.00088501
15.5493,10.3871,-0.00649929
15.0233,10.1872,-0.00154305
15.0128,10.1932,-0.00720215
15.0023,10.1991,-0.012867
14.9918,10.2051,-0.0185413
14.9813,10.2111,-0.0242224
14.9707,10.2171,-0.029911
14.307,9.90735,0.00963306
14.2962,9.91332,0.00389576
14.2854,9.91929,-0.00184727
14.2745,9.92527,-0.00759792
14.2636,9.93126,-0.0133562
14.2528,9.93725,-0.0191202
13.5973,9.63839,0.0158863
13.5862,9.64437,0.010066
13.575,9.65036,0.00423813
13.5637,9.65635,-0.0015955
13.5525,9.66235,-0.00743866
13.5413,9.66837,-0.0132895
12.9162,9.36804,0.0289507
12.9046,9.37403,0.023057
12.8931,9.38002,0.0171528
12.8815,9.38602,0.0112429
12.87,9.39204,0.00532246
12.8584,9.39805,-0.000602722
12.8468,9.40408,-0.00653839
12.2676,9.17472,0.00426006
12.2556,9.18074,-0.00173664
12.2437,9.18677,-0.00774384
12.2317,9.1928,-0.0137568
12.2198,9.19884,-0.0197773
12.2078,9.20489,-0.0258093
11.6064,8.91637,0.0145998
11.5941,8.92239,0.00852203
11.5818,8.92843,0.00243473
11.5695,8.93447,-0.00365925
11.5572,8.94053,-0.00976467
11.5449,8.94659,-0.0158758
10.9626,8.66172,0.0264416
10.95,8.66776,0.0202827
10.9373,8.6738,0.0141144
10.9246,8.67986,0.00794029
10.912,8.68592,0.00175476
10.8993,8.69199,-0.00443745
10.2137,8.39858,0.0210667
10.2006,8.40467,0.014781
10.1875,8.41078,0.00848389
10.1744,8.41689,0.00217819
10.1613,8.42302,-0.00413609
10.1481,8.42915,-0.0104599
9.57415,8.1515,0.0294218
9.56068,8.15757,0.0230684
9.54718,8.16365,0.0167046
9.53367,8.16974,0.0103302
9.52014,8.17583,0.00394917
9.50659,8.18194,-0.00244427
8.92673,7.93138,0.0205097
8.91283,7.93749,0.0140429
8.89892,7.94361,0.00756454
8.88497,7.94973,0.00108051
8.87101,7.95586,-0.00541401
8.19443,7.68017,0.0117149
8.18003,7.68631,0.005126
8.16561,7.69245,-0.0014677
8.15117,7.6986,-0.00807381
8.1367,7.70476,-0.0146904
8.12222,7.71093,-0.0213165
7.44665,4.57252,1.65415
7.51867,5.04543,1.39541
6.7102,1.99395,2.99252
6.7001,1.99686,2.9887
6.68998,1.99978,2.98488
6.67986,2.0027,2.98105
6.66972,2.00562,2.97722
6.65957,2.00855,2.97339
6.16109,1.7821,2.99952
6.15067,1.78501,2.99564
6.14023,1.78791,2.99176
6.12979,1.79082,2.98788
6.11932,1.79373,2.98398
6.10885,1.79665,2.98009
5.61434,1.58758,2.99699
5.60357,1.5905,2.99303
5.59279,1.59342,2.98907
5.58199,1.59635,2.9851
5.57118,1.59928,2.98112
4.97787,1.3609,2.99418
4.96668,1.36385,2.99012
4.95547,1.3668,2.98605
4.94425,1.36975,2.98197
4.93301,1.3727,2.97789
4.37825,3.89793,1.39836
4.23186,6.22951,0.0170403
4.21452,6.23575,0.00977135
4.19715,6.24201,0.00248718
4.17976,6.24827,-0.00480652
4.16233,6.25455,-0.0121136
3.49696,5.96195,0.0171719
3.479,5.96827,0.00972652
3.46101,5.9746,0.0022707
3.44299,5.98094,-0.00519943
3.42494,5.98728,-0.0126781
3.40686,5.99364,-0.0201712
3.20911,5.60625,0.162549
3.19119,5.61233,0.155247
3.17324,5.61843,0.147932
3.15526,5.62454,0.140605
3.13724,5.63066,0.133267
3.1192,5.63679,0.125916
3.33806,3.8159,1.22671
3.32229,3.8207,1.2206
3.24444,3.40379,1.44568
3.22902,3.40831,1.43981
3.21358,3.41285,1.43393
3.19811,3.41739,1.42804
2.67566,3.158,1.46821
2.6598,3.16257,1.46221
2.64392,3.16715,1.45621
2.62801,3.17174,1.4502
2.61207,3.17634,1.44418
2.59611,3.18095,1.43815
2.12763,2.90503,1.49926
2.11136,2.90956,1.49321
2.09507,2.91409,1.48715
2.07875,2.91864,1.48108
2.0624,2.92319,1.475
2.04603,2.92774,1.46891
1.44132,2.71856,1.46266
1.42436,2.72316,1.45642
1.40737,2.72776,1.45018
1.39036,2.73237,1.44392
1.37331,2.73699,1.43765
0.630097,2.50449,1.41572
0.612267,2.50918,1.40925
0.594406,2.51388,1.40277
0.576515,2.51858,1.39627
0.558592,2.5233,1.38976
-0.18369,2.34388,1.33728
-0.202512,2.34872,1.33051
-0.221367,2.35356,1.32374
-0.240255,2.35842,1.31695
-0.259178,2.36328,1.31014
-1.00847,2.16909,1.26474
-1.02832,2.17403,1.2577
-1.0482,2.17899,1.25064
-1.06812,2.18395,1.24357
-1.08808,2.18892,1.23649
-3.23146,3.52018,0.0137901
-3.25648,3.52677,0.00470543
-3.28155,3.53336,-0.00439548
-3.30667,3.53997,-0.0135174
-3.33184,3.54659,-0.0226526
-3.89142,3.29659,0.0042448
-3.91735,3.30325,-0.00507832
-3.94333,3.30993,-0.0144196
-3.96937,3.31662,-0.0237789
-4.50549,3.04001,0.0234756
-4.53221,3.04666,0.0139914
-4.55898,3.05333,0.00448895
-4.58582,3.06001,-0.00503635
-4.6127,3.06671,-0.0145798
-5.28508,2.80178,-0.00279903
-5.31301,2.80856,-0.0126133
-5.34101,2.81535,-0.0224466
-5.36906,2.82216,-0.0323029
-5.39718,2.82899,-0.042181
-5.91776,2.56872,-0.00111294
-5.94663,2.57552,-0.0111351
-5.97557,2.58233,-0.0211811
-6.00458,2.58916,-0.031249
-6.03364,2.59601,-0.041338
-6.53016,2.29381,0.0290871
-6.5599,2.30057,0.0189028
-6.58972,2.30735,0.00869274
-6.6196,2.31414,-0.00153542
-7.16422,2.06541,0.0277815
-7.19504,2.07223,0.0173368
-7.22593,2.07907,0.0068655
-7.2569,2.08592,-0.00362873
-7.28793,2.09279,-0.0141459
-7.95242,1.82601,0.000369072
-7.98471,1.83295,-0.0104532
-8.01707,1.83991,-0.0213032
-8.04951,1.84688,-0.0321798
-8.54949,1.56645,0.0249043
-8.58284,1.5734,0.0138531
-8.61626,1.58037,0.0027771
-8.64977,1.58735,-0.00832939
-8.68336,1.59435,-0.0194607
-9.19271,1.32623,0.0285149
-9.2273,1.33322,0.0171785
-9.26197,1.34023,0.00581264
-9.29673,1.34726,-0.00557899
-9.93575,1.06769,0.0217113
-9.97188,1.07475,0.010004
-10.0081,1.08184,-0.00173283
-10.0444,1.08894,-0.0135002
-10.0809,1.09606,-0.025301
-10.6058,0.844936,0.00954723
-10.6435,0.852108,-0.0025444
-10.6813,0.859302,-0.0146704
-10.7191,0.866511,-0.0268278
-11.1822,0.581061,0.040947
-11.2211,0.588216,0.0286026
-11.2601,0.595395,0.0162191
-11.2993,0.602592,0.00380421
-11.937,0.31366,0.0367889
-11.9778,0.320921,0.0239792
-12.0188,0.328197,0.0111389
-12.0598,0.335498,-0.00174141
-12.5444,0.0719728,0.04879
-12.5869,0.0792894,0.0356102
-12.6294,0.086627,0.0223923
-12.6721,0.0939865,0.0091362
-12.7149,0.101368,-0.00415993
-13.221,-0.148696,0.0340567
-13.2653,-0.141275,0.0204115
-13.3098,-0.133832,0.00672531
-13.3545,-0.126367,-0.00700283
-13.9705,-0.419425,0.0329323
-14.0171,-0.411915,0.0187616
-14.0639,-0.404379,0.00454426
-14.1108,-0.396822,-0.00971603
-14.6706,-0.619468,0.00128651
-14.7196,-0.611773,-0.0134935
-14.7688,-0.604054,-0.0283222
-14.8181,-0.596311,-0.0431986
-15.2854,-0.857114,0.00940514
-15.3366,-0.849318,-0.00589848
-15.388,-0.841495,-0.0212545
-15.4395,-0.833644,-0.036665
-15.8504,-1.12497,0.0455093
-15.9036,-1.11718,0.0297823
-15.957,-1.10936,0.0139999
-16.0106,-1.10151,-0.00184059
15.7027,10.3536,0.0248976
15.6926,10.3595,0.0193224
15.6825,10.3655,0.0137405
15.6724,10.3714,0.00815201
15.6623,10.3774,0.00255489
15.6522,10.3834,-0.00304699
15.1269,10.1835,0.00205135
15.1165,10.1894,-0.00359535
15.106,10.1954,-0.00924873
15.0956,10.2013,-0.0149107
15.0852,10.2073,-0.0205803
15.0747,10.2133,-0.0262537
15.0642,10.2192,-0.0319376
14.4005,9.90916,0.00791454
14.3898,9.91512,0.00218582
14.379,9.92109,-0.00355339
14.3682,9.92706,-0.00929642
14.3574,9.93304,-0.015048
14.3466,9.93903,-0.0208092
13.7024,9.63383,0.0203171
13.6913,9.6398,0.0145092
13.6802,9.64577,0.00869656
13.669,9.65175,0.00287628
13.6579,9.65774,-0.00295258
13.6467,9.66373,-0.00878811
13.6356,9.66974,-0.0146322
13.0105,9.36906,0.0279131
12.999,9.37504,0.0220261
12.9876,9.38103,0.0161285
12.9761,9.38702,0.0102243
12.9646,9.39302,0.00431347
12.9531,9.39903,-0.00160599
12.3628,9.17551,0.00348949
12.3509,9.18152,-0.00250244
12.339,9.18754,-0.00849915
12.3272,9.19357,-0.0145073
12.3153,9.1996,-0.0205221
12.3034,9.20564,-0.0265427
11.7021,8.91677,0.0141764
11.6899,8.92279,0.00810432
11.6777,8.92882,0.00202465
11.6654,8.93486,-0.00405979
11.6532,8.9409,-0.0101585
11.6409,8.94696,-0.0162601
11.0587,8.66175,0.0263643
11.0462,8.66778,0.0202112
11.0336,8.67382,0.0140553
11.021,8.67986,0.00788879
11.0084,8.68592,0.0017128
10.9958,8.69198,-0.00447178
10.3107,8.39802,0.0214882
10.2977,8.40411,0.0152082
10.2846,8.4102,0.00892353
10.2716,8.41631,0.00262737
10.2586,8.42242,-0.00367737
10.2455,8.42854,-0.00998974
9.67178,8.15082,0.0300808
9.6584,8.15689,0.0237331
9.645,8.16295,0.0173798
9.63157,8.16903,0.0110159
9.61813,8.17512,0.00464439
9.60467,8.18122,-0.00173569
9.02523,7.93031,0.0215549
9.01143,7.93641,0.0150995
8.9976,7.94252,0.00863266
8.98375,7.94863,0.00216007
8.96988,7.95476,-0.00432587
8.95599,7.96089,-0.0108185
8.29398,7.67877,0.0131578
8.27967,7.68489,0.00658226
8.26535,7.69102,-9.53674e-07
8.251,7.69717,-0.00659752
8.23663,7.70332,-0.0132008
8.22224,7.70947,-0.0198126
7.46833,4.59247,1.63048
6.77735,1.99302,2.9936
6.76731,1.99593,2.9898
6.75725,1.99884,2.98598
6.74718,2.00176,2.98216
6.7371,2.00468,2.97834
6.72701,2.00761,2.97451
6.22897,1.78111,3.00082
6.21861,1.784,2.99695
6.20823,1.7869,2.99308
6.19785,1.7898,2.9892
6.18744,1.79271,2.98532
6.17703,1.79562,2.98143
5.68308,1.58637,2.99859
5.67238,1.58929,2.99464
5.66166,1.5922,2.99068
5.65092,1.59512,2.98672
5.64017,1.59805,2.98275
5.62941,1.60098,2.97878
5.04769,1.35943,2.99616
5.03656,1.36236,2.99211
5.02542,1.36531,2.98804
5.01427,1.36825,2.98398
5.00309,1.3712,2.97991
4.99191,1.37416,2.97583
4.28586,6.24477,-0.000787735
4.26856,6.25103,-0.00807476
4.25122,6.25731,-0.015379
3.58632,5.96413,0.0144081
3.56845,5.97044,0.00697041
3.55055,5.97677,-0.000480652
3.53263,5.9831,-0.0079422
3.51467,5.98944,-0.0154171
3.29736,5.60845,0.15987
3.27953,5.61453,0.152573
3.26167,5.62062,0.145266
3.24378,5.62673,0.137942
3.22586,5.63284,0.13061
3.43148,3.81275,1.23064
3.41581,3.81754,1.22455
3.40013,3.82234,1.21845
3.33548,3.40092,1.44945
3.32016,3.40543,1.44359
3.30482,3.40995,1.43773
3.28945,3.41448,1.43185
3.27406,3.41902,1.42597
3.25865,3.42357,1.42007
2.75193,3.15912,1.46658
2.73615,3.16369,1.4606
2.72034,3.16827,1.4546
2.70451,3.17285,1.4486
2.68866,3.17745,1.44258
2.20431,2.90605,1.49785
2.18812,2.91057,1.49181
2.17191,2.91511,1.48575
2.15567,2.91964,1.47969
2.1394,2.92419,1.47362
1.5362,2.7147,1.46785
1.51935,2.71928,1.46163
1.50247,2.72388,1.4554
1.48557,2.72847,1.44916
1.46864,2.73308,1.44291
1.45168,2.73769,1.43665
0.709868,2.50483,1.41518
0.692129,2.50951,1.40872
0.674359,2.5142,1.40224
0.65656,2.5189,1.39575
0.638729,2.52361,1.38926
-0.10172,2.34377,1.3373
-0.120443,2.3486,1.33054
-0.1392,2.35344,1.32377
-0.157991,2.35828,1.31699
-0.176813,2.36314,1.31019
-0.924283,2.16866,1.26524
-0.944027,2.1736,1.25821
-0.963807,2.17855,1.25116
-0.983624,2.1835,1.2441
-1.00347,2.18846,1.23703
-3.15586,3.52558,0.00626373
-3.18079,3.53216,-0.00282192
-3.20577,3.53875,-0.0119247
-3.2308,3.54536,-0.0210476
-3.78921,3.2949,0.00642776
-3.81499,3.30155,-0.00287628
-3.84083,3.30821,-0.0121984
-3.86671,3.31489,-0.0215435
-3.89265,3.32158,-0.0309057
-4.40197,3.03805,0.0261393
-4.42853,3.04469,0.0166731
-4.45516,3.05135,0.00718689
-4.48183,3.05802,-0.00231743
-4.50856,3.0647,-0.0118427
-5.17906,2.79919,0.000700951
-5.20683,2.80596,-0.00909519
-5.23466,2.81274,-0.0189037
-5.26255,2.81953,-0.0287418
-5.2905,2.82634,-0.0385962
-5.83869,2.57263,-0.00707245
-5.86746,2.57943,-0.0170956
-5.89629,2.58624,-0.0271406
-5.92518,2.59307,-0.0372066
-6.42093,2.29074,0.0336161
-6.4505,2.29749,0.0234556
-6.48013,2.30425,0.0132713
-6.50984,2.31102,0.00306511
-6.53961,2.31782,-0.00716496
-7.08347,2.06871,0.0225945
-7.11417,2.07553,0.0121508
-7.14495,2.08237,0.00168514
-7.17579,2.08922,-0.00880623
-7.83792,1.82193,0.00653648
-7.87001,1.82885,-0.0042572
-7.90217,1.83579,-0.0150757
-7.9344,1.84275,-0.0259218
-7.96671,1.84972,-0.0367908
-8.46609,1.56897,0.0207348
-8.4993,1.57591,0.00968933
-8.53259,1.58287,-0.00138187
-8.56596,1.58985,-0.0124807
-9.07365,1.32146,0.0361195
-9.10801,1.32842,0.0248184
-9.14245,1.33541,0.0134907
-9.17698,1.34241,0.00213337
-9.2116,1.34943,-0.00925159
-9.84927,1.06946,0.0186186
-9.88525,1.07652,0.00692081
-9.92134,1.0836,-0.00481033
-9.95752,1.0907,-0.016572
-10.5175,0.846265,0.00708199
-10.555,0.853431,-0.00499916
-10.5926,0.860619,-0.0171156
-10.6303,0.867823,-0.0292616
-11.0926,0.582121,0.0389776
-11.1313,0.58927,0.0266428
-11.1702,0.596439,0.0142746
-11.2092,0.603629,0.00187016
-11.845,0.314234,0.0355921
-11.8857,0.321487,0.0227947
-11.9264,0.328756,0.0099678
-11.9673,0.33605,-0.00290012
-12.4505,0.0721626,0.048255
-12.4927,0.0794678,0.0350943
-12.5351,0.0867968,0.0218935
-12.5776,0.0941477,0.00865364
-13.1246,-0.148911,0.0342484
-13.1687,-0.1415,0.0206223
-13.213,-0.134068,0.00695515
-13.2574,-0.126614,-0.00675297
-13.8713,-0.42008,0.0339851
-13.9177,-0.412581,0.0198355
-13.9642,-0.405059,0.00564098
-14.0109,-0.397513,-0.00859642
-14.568,-0.62066,0.00328636
-14.6168,-0.612979,-0.011467
-14.6657,-0.605275,-0.026268
-14.7148,-0.597545,-0.0411186
-15.2307,-0.850992,-0.00294399
-15.2818,-0.843184,-0.0182686
-15.3331,-0.83535,-0.0336485
-15.7423,-1.12691,0.049202
-15.7952,-1.11913,0.0335102
-15.8484,-1.11133,0.0177612
-15.9017,-1.1035,0.00195789
15.7948,10.3558,0.0227146
15.7848,10.3618,0.0171432
15.7748,10.3677,0.0115681
15.7647,10.3737,0.00598431
15.7547,10.3796,0.000392914
15.7446,10.3856,-0.0052042
15.2197,10.1857,9.53674e-07
15.2094,10.1916,-0.00564194
15.199,10.1976,-0.0112915
15.1887,10.2035,-0.0169487
15.1783,10.2095,-0.0226097
15.1679,10.2155,-0.0282803
14.4938,9.91097,0.00620365
14.4831,9.91692,0.000477791
14.4724,9.92288,-0.00525379
14.4617,9.92885,-0.010994
14.451,9.93482,-0.0167398
14.4402,9.94081,-0.0224934
13.796,9.63524,0.0189409
13.785,9.6412,0.0131397
13.7739,9.64717,0.00733185
13.7629,9.65314,0.00151825
13.7518,9.65912,-0.00430489
13.7407,9.66511,-0.0101357
13.1046,9.37008,0.0268784
13.0932,9.37605,0.0209999
13.0818,9.38203,0.0151072
13.0704,9.38802,0.00920868
13.059,9.39401,0.00330353
13.0475,9.40002,-0.00260735
12.4577,9.1763,0.00271893
12.4459,9.1823,-0.00326443
12.4342,9.18831,-0.00925636
12.4224,9.19433,-0.0152569
12.4105,9.20036,-0.0212612
12.3987,9.20639,-0.0272779
11.8096,8.91117,0.0198088
11.7975,8.91717,0.0137548
11.7854,8.92319,0.00768948
11.7732,8.92921,0.00161648
11.7611,8.93524,-0.00446224
11.7489,8.94128,-0.0105495
11.7367,8.94732,-0.0166435
11.1546,8.66178,0.0262871
11.1422,8.6678,0.0201454
11.1297,8.67384,0.0139933
11.1172,8.67987,0.00783443
11.1047,8.68592,0.00166798
11.0921,8.69197,-0.00450802
10.4073,8.39747,0.0219059
10.3944,8.40355,0.0156374
10.3815,8.40964,0.00936031
10.3685,8.41573,0.00307274
10.3556,8.42183,-0.00322056
10.3426,8.42795,-0.0095253
9.76913,8.15014,0.030736
9.75584,8.1562,0.0243988
9.74252,8.16226,0.0180559
9.72919,8.16833,0.0117006
9.71584,8.17441,0.00533962
9.70246,8.18049,-0.00103092
9.12344,7.92925,0.0225992
9.10972,7.93534,0.0161543
9.09598,7.94143,0.00970078
9.08223,7.94754,0.00323296
9.06845,7.95366,-0.00323868
9.05466,7.95978,-0.00972462
8.37901,7.68349,0.00803375
8.36478,7.68961,0.00146103
8.35053,7.69574,-0.00512314
8.33625,7.70188,-0.0117168
8.32196,7.70802,-0.0183182
7.50211,4.60823,1.61175
7.49009,4.6125,1.60672
6.83431,1.99501,2.99089
6.82431,1.99792,2.98708
6.8143,2.00083,2.98327
6.80428,2.00374,2.97945
6.79424,2.00666,2.97563
6.28633,1.783,2.99826
6.27602,1.7859,2.99439
6.26569,1.78879,2.99052
6.25535,1.7917,2.98664
6.24499,1.7946,2.98276
5.74096,1.58808,2.99624
5.7303,1.59099,2.9923
5.71963,1.59391,2.98834
5.70894,1.59683,2.98438
5.69824,1.59975,2.98041
5.10621,1.36089,2.99409
5.09513,1.36382,2.99004
5.08404,1.36676,2.98598
5.07294,1.36971,2.98192
5.06182,1.37265,2.97785
4.56063,1.15762,2.99689
4.54919,1.16058,2.99274
4.30535,6.27263,-0.0332661
4.52626,1.16652,2.98443
4.51477,1.1695,2.98027
4.3675,3.95258,1.32978
3.67548,5.9663,0.0116501
3.6577,5.97261,0.00421906
3.6399,5.97893,-0.00322628
3.62207,5.98526,-0.0106831
3.6042,5.9916,-0.0181522
3.38542,5.61065,0.157196
3.36768,5.61672,0.149905
3.34992,5.62281,0.142603
3.33212,5.62891,0.135287
3.31429,5.63502,0.127959
3.50899,3.81439,1.22849
3.4934,3.81917,1.2224
3.41096,3.40256,1.44736
3.39571,3.40707,1.4415
3.38045,3.41159,1.43564
3.36516,3.41612,1.42977
3.34984,3.42065,1.4239
2.82801,3.16024,1.46497
2.81231,3.16481,1.45898
2.79659,3.16938,1.453
2.78083,3.17396,1.447
2.76506,3.17855,1.44099
2.2808,2.90707,1.49645
2.26469,2.91159,1.49041
2.24856,2.91612,1.48437
2.2324,2.92065,1.47831
2.21622,2.92519,1.47224
1.61394,2.71543,1.46681
1.59718,2.72001,1.4606
1.58039,2.7246,1.45438
1.56357,2.72919,1.44815
1.54673,2.73379,1.44191
0.807048,2.5005,1.42109
0.789429,2.50517,1.41464
0.77178,2.50985,1.40819
0.754103,2.51453,1.40172
0.736393,2.51923,1.39524
0.718654,2.52393,1.38875
-0.0199776,2.34365,1.33731
-0.0386033,2.34847,1.33056
-0.0572619,2.35331,1.3238
-0.075954,2.35815,1.31703
-0.0946779,2.36299,1.31024
-0.840343,2.16824,1.26574
-0.859982,2.17317,1.25871
-0.879658,2.17811,1.25167
-0.899368,2.18306,1.24462
-0.919115,2.18801,1.23756
-1.90991,2.02292,1.12391
-1.93108,2.0281,1.11642
-1.95229,2.03329,1.10891
-1.97354,2.03849,1.10139
-1.99483,2.04369,1.09386
-2.01616,2.04891,1.08631
-3.05556,3.52439,0.00781822
-3.08035,3.53096,-0.00125217
-3.10519,3.53754,-0.0103378
-3.13008,3.54414,-0.0194454
-3.15502,3.55075,-0.0285711
-3.68733,3.29322,0.00860596
-3.71297,3.29986,-0.000682831
-3.73865,3.30651,-0.00998878
-3.76439,3.31318,-0.0193138
-3.79018,3.31985,-0.0286579
-4.3252,3.04273,0.0193453
-4.35167,3.04937,0.00988007
-4.37819,3.05603,0.000393867
-4.40477,3.0627,-0.00911236
-5.10103,2.80336,-0.00558567
-5.12869,2.81013,-0.015378
-5.15642,2.81691,-0.0251913
-5.1842,2.82371,-0.0350256
-5.73115,2.56975,-0.0030241
-5.75974,2.57653,-0.0130253
-5.7884,2.58333,-0.0230474
-5.81712,2.59015,-0.0330906
-5.84591,2.59698,-0.0431566
-6.3415,2.29442,0.0279922
-6.37096,2.30116,0.0178328
-6.40049,2.30792,0.00764942
-6.43008,2.3147,-0.0025568
-6.97234,2.06521,0.027832
-7.00286,2.07201,0.017417
-7.03344,2.07883,0.00697708
-7.06409,2.08567,-0.00348663
-7.09482,2.09252,-0.013979
-7.75578,1.82477,0.00191498
-7.78774,1.83169,-0.00887585
-7.81976,1.83863,-0.0196886
-7.85187,1.84558,-0.0305309
-8.34985,1.56455,0.0275841
-8.38284,1.57148,0.016573
-8.41592,1.57842,0.00553417
-8.44908,1.58538,-0.00553513
-8.48232,1.59236,-0.0166283
-8.98925,1.32364,0.0324287
-9.02347,1.3306,0.0211334
-9.05777,1.33759,0.0098114
-9.09216,1.34458,-0.00153732
-9.76298,1.07123,0.0155306
-9.79881,1.07828,0.00384045
-9.83474,1.08536,-0.00788021
-9.87078,1.09245,-0.0196352
-10.392,0.840449,0.0166626
-10.4293,0.847591,0.00462246
-10.4667,0.85475,-0.0074482
-10.5041,0.861932,-0.0195551
-10.5417,0.869129,-0.0316906
-11.0031,0.583174,0.0370159
-11.0417,0.590318,0.0246916
-11.0804,0.597481,0.0123339
-11.1192,0.604664,-5.81741e-05
-11.7533,0.314808,0.0343952
-11.7937,0.322051,0.021615
-11.8343,0.329313,0.00880146
-11.875,0.336598,-0.00405121
-12.3568,0.0723495,0.0477247
-12.3989,0.079648,0.0345783
-12.4411,0.0869665,0.0213947
-12.4833,0.0943069,0.00817204
-13.0285,-0.149123,0.0344372
-13.0724,-0.141725,0.0208321
-13.1165,-0.134303,0.00718498
-13.1607,-0.126859,-0.00650501
-13.7723,-0.420732,0.0350323
-13.8185,-0.413246,0.0209064
-13.8648,-0.405736,0.00673485
-13.9112,-0.398203,-0.00747871
-14.4658,-0.621846,0.00527859
-14.5143,-0.614182,-0.00944519
-14.5629,-0.60649,-0.0242214
-14.6117,-0.598776,-0.0390425
-15.1252,-0.85266,0
-15.1761,-0.844869,-0.015295
-15.2271,-0.837051,-0.0306406
-15.2783,-0.829207,-0.0460396
-15.6346,-1.12884,0.0528841
-15.6872,-1.12108,0.0372238
-15.7401,-1.1133,0.0215111
-15.7931,-1.10548,0.00574303
15.8966,10.3522,0.0260954
15.8867,10.3581,0.0205364
15.8767,10.364,0.0149717
15.8668,10.3699,0.00940228
15.8568,10.3759,0.00382042
15.8469,10.3818,-0.0017643
15.8369,10.3878,-0.00735855
15.3124,10.1879,-0.00204849
15.3021,10.1938,-0.00768471
15.2918,10.1998,-0.0133295
15.2815,10.2057,-0.0189791
15.2712,10.2117,-0.0246353
15.2609,10.2176,-0.0303011
14.5974,9.90683,0.0102043
14.5868,9.91277,0.00449371
14.5762,9.91872,-0.00122643
14.5656,9.92467,-0.00695133
14.555,9.93063,-0.0126848
14.5443,9.9366,-0.0184259
14.5336,9.94258,-0.0241737
13.8894,9.63664,0.0175648
13.8784,9.6426,0.0117722
13.8675,9.64856,0.00597
13.8565,9.65453,0.000162125
13.8455,9.6605,-0.00565529
13.8345,9.66648,-0.0114765
13.1984,9.37109,0.0258465
13.1871,9.37705,0.0199738
13.1758,9.38303,0.0140877
13.1645,9.38901,0.00819969
13.1531,9.395,0.00229931
13.1418,9.401,-0.00360489
12.5524,9.17708,0.00195122
12.5407,9.18308,-0.00402546
12.529,9.18908,-0.0100088
12.5173,9.1951,-0.0160007
12.5056,9.20112,-0.0220032
12.4938,9.20714,-0.0280085
11.9047,8.91158,0.0193796
11.8927,8.91758,0.0133324
11.8806,8.92358,0.00727654
11.8686,8.9296,0.00121307
11.8565,8.93562,-0.00485992
11.8444,8.94165,-0.0109386
11.2503,8.66181,0.0262108
11.2379,8.66783,0.0200768
11.2255,8.67385,0.0139332
11.2131,8.67988,0.00778389
11.2006,8.68592,0.00162601
11.1882,8.69196,-0.0045414
10.5037,8.39692,0.0223246
10.4909,8.40298,0.0160675
10.4781,8.40907,0.00979614
10.4652,8.41515,0.00352097
10.4523,8.42125,-0.00276661
10.4394,8.42735,-0.00906086
9.8662,8.14947,0.0313883
9.85299,8.15552,0.0250607
9.83976,8.16157,0.0187273
9.82652,8.16763,0.0123844
9.81325,8.1737,0.00603104
9.79997,8.17978,-0.000332832
9.22135,7.92819,0.0236425
9.20772,7.93427,0.0172052
9.19408,7.94036,0.0107594
9.18041,7.94646,0.00430489
9.16673,7.95256,-0.00215721
9.15302,7.95867,-0.00862885
8.47804,7.68209,0.00947952
8.4639,7.6882,0.00291729
8.44974,7.69431,-0.00365353
8.43556,7.70045,-0.0102367
8.42136,7.70658,-0.0168266
8.40714,7.71273,-0.0234261
7.52395,4.62831,1.58793
6.90109,1.99409,2.99198
6.89116,1.99699,2.98817
6.8812,1.99989,2.98437
6.87124,2.0028,2.98056
6.86126,2.00572,2.97674
6.85127,2.00863,2.97292
6.35384,1.782,2.99956
6.34358,1.78489,2.9957
6.33331,1.78779,2.99184
6.32303,1.79068,2.98797
6.31274,1.79358,2.98409
6.30243,1.79649,2.98021
5.80931,1.58688,2.99784
5.79872,1.58978,2.9939
5.78811,1.59269,2.98995
5.77748,1.5956,2.986
5.76685,1.59852,2.98205
5.7562,1.60144,2.97808
5.17561,1.35942,2.99606
5.1646,1.36234,2.99202
5.15358,1.36528,2.98797
5.14254,1.36822,2.98392
5.13149,1.37116,2.97986
5.12042,1.3741,2.97579
4.61958,1.15882,2.99509
4.60819,1.16178,2.99095
4.59679,1.16474,2.9868
4.58536,1.16771,2.98265
4.57393,1.17068,2.97849
4.50497,1.18861,2.95341
4.3547,3.98251,1.29224
3.7821,5.96218,0.0163136
3.76445,5.96847,0.00889969
3.74677,5.97478,0.00147438
3.72905,5.98109,-0.00596619
3.71131,5.98742,-0.0134172
3.69354,5.99375,-0.0208817
3.49091,5.60678,0.161801
3.47329,5.61284,0.154531
3.45564,5.61891,0.147243
3.43797,5.62499,0.139946
3.42026,5.63109,0.132636
3.40252,5.63719,0.125315
3.58632,3.81602,1.22634
3.57081,3.8208,1.22026
3.48627,3.4042,1.44527
3.4711,3.40871,1.43942
3.45591,3.41322,1.43357
3.44069,3.41774,1.4277
3.42546,3.42227,1.42183
2.91952,3.15681,1.46932
2.90392,3.16136,1.46335
2.8883,3.16592,1.45738
2.87265,3.17049,1.45139
2.85698,3.17507,1.4454
2.84128,3.17965,1.43939
2.35711,2.90809,1.49505
2.34108,2.9126,1.48902
2.32503,2.91713,1.48298
2.30896,2.92166,1.47693
2.29285,2.92619,1.47086
1.6915,2.71616,1.46578
1.67482,2.72074,1.45958
1.65811,2.72532,1.45336
1.64138,2.7299,1.44714
1.62462,2.7345,1.4409
0.886311,2.50084,1.42055
0.868782,2.5055,1.41411
0.851224,2.51018,1.40766
0.833636,2.51486,1.4012
0.816018,2.51955,1.39472
0.0615382,2.34354,1.33732
0.0430098,2.34835,1.33058
0.0244484,2.35318,1.32383
0.00585413,2.35801,1.31707
-0.0127721,2.36285,1.31029
-0.756647,2.16782,1.26623
-0.776182,2.17274,1.25921
-0.795752,2.17767,1.25219
-0.815357,2.18261,1.24515
-0.834999,2.18756,1.2381
-1.8226,2.02187,1.12522
-1.84365,2.02704,1.11774
-1.86475,2.03222,1.11025
-1.88588,2.03741,1.10274
-1.90705,2.0426,1.09522
-2.0564,2.07927,1.04216
-3.00492,3.53634,-0.00875854
-3.02967,3.54292,-0.017849
-3.05447,3.54952,-0.0269585
-3.58578,3.29155,0.0107765
-3.61127,3.29817,0.00150681
-3.63681,3.30481,-0.00778294
-3.6624,3.31146,-0.0170898
-3.68805,3.31813,-0.0264177
-4.22222,3.04077,0.0220118
-4.24854,3.0474,0.0125618
-4.27491,3.05404,0.00309467
-4.30133,3.0607,-0.00639343
-4.32781,3.06737,-0.0158997
-4.99559,2.80078,-0.00209141
-5.0231,2.80753,-0.0118618
-5.05066,2.8143,-0.0216532
-5.07828,2.82108,-0.0314684
-5.10596,2.82787,-0.0413017
-5.624,2.56688,0.00100613
-5.65242,2.57365,-0.00897026
-5.68091,2.58043,-0.0189686
-5.70946,2.58723,-0.0289898
-5.73807,2.59405,-0.0390329
-6.23292,2.29136,0.0325117
-6.26219,2.29809,0.022377
-6.29154,2.30483,0.0122185
-6.32095,2.31159,0.00203705
-6.35043,2.31836,-0.00816345
-6.89198,2.06851,0.0226583
-6.92237,2.07531,0.0122471
-6.95284,2.08213,0.00180912
-6.98338,2.08896,-0.00865459
-7.67377,1.82761,-0.00269604
-7.70561,1.83453,-0.013484
-7.73751,1.84146,-0.0242958
-7.76949,1.84841,-0.0351324
-8.26688,1.56706,0.023428
-8.29975,1.57399,0.0124178
-8.33269,1.58092,0.00138378
-8.36572,1.58788,-0.00967789
-8.90501,1.32582,0.0287437
-8.93909,1.33278,0.0174561
-8.97325,1.33976,0.0061388
-9.0075,1.34675,-0.00520325
-9.67686,1.07299,0.0124512
-9.71255,1.08004,0.000767708
-9.74833,1.08711,-0.0109453
-9.78421,1.0942,-0.0226908
-10.3042,0.841779,0.0141993
-10.3413,0.848915,0.0021677
-10.3785,0.856069,-0.00989437
-10.4158,0.863239,-0.021986
-10.914,0.584228,0.0350561
-10.9524,0.591363,0.0227442
-10.9909,0.598519,0.0103998
-11.0295,0.605695,-0.00198078
-11.6618,0.31538,0.0332022
-11.7021,0.322615,0.0204382
-11.7425,0.32987,0.00763702
-11.783,0.337146,-0.00520134
-12.2634,0.0725374,0.0471945
-12.3053,0.0798273,0.0340643
-12.3472,0.0871353,0.0208979
-12.3893,0.0944662,0.00769138
-12.9326,-0.149337,0.0346279
-12.9763,-0.141949,0.0210419
-13.0202,-0.134538,0.00741386
-13.0642,-0.127105,-0.00625515
-13.6736,-0.421382,0.0360756
-13.7196,-0.413909,0.0219736
-13.7657,-0.406412,0.00782585
-13.8119,-0.39889,-0.00636578
-14.3638,-0.62303,0.007267
-14.4121,-0.615379,-0.00743198
-14.4605,-0.607703,-0.0221796
-14.509,-0.600002,-0.036974
-15.0201,-0.854323,0.00293446
-15.0706,-0.846549,-0.0123281
-15.1214,-0.838746,-0.0276451
-15.1723,-0.830916,-0.0430145
-15.5796,-1.12302,0.040925
-15.6322,-1.11525,0.0252476
-15.6849,-1.10746,0.00951385
15.998,10.3485,0.0294657
15.9882,10.3544,0.0239182
15.9783,10.3603,0.0183649
15.9685,10.3662,0.0128059
15.9586,10.3722,0.00723839
15.9487,10.3781,0.00166321
15.9388,10.3841,-0.00391674
15.415,10.1842,0.0015316
15.4048,10.1901,-0.00409317
15.3946,10.196,-0.00972462
15.3844,10.202,-0.0153618
15.3742,10.2079,-0.0210075
15.364,10.2139,-0.02666
15.3537,10.2198,-0.0323181
14.6902,9.90864,0.00849342
14.6797,9.91457,0.00278854
14.6691,9.92051,-0.00292492
14.6586,9.92646,-0.00864792
14.648,9.93241,-0.0143738
14.6374,9.93837,-0.0201082
13.9825,9.63805,0.0161953
13.9717,9.644,0.0104055
13.9608,9.64995,0.00461292
13.9499,9.65591,-0.00119019
13.939,9.66188,-0.00699997
13.928,9.66786,-0.0128174
13.292,9.3721,0.0248184
13.2808,9.37806,0.0189495
13.2695,9.38403,0.013072
13.2583,9.39,0.0071907
13.247,9.39598,0.00129795
13.2357,9.40197,-0.00460052
12.6585,9.17188,0.00714588
12.6469,9.17787,0.00118542
12.6353,9.18386,-0.00478554
12.6236,9.18985,-0.0107613
12.612,9.19586,-0.0167456
12.6003,9.20187,-0.0227375
12.5887,9.20789,-0.0287371
11.9995,8.91199,0.0189505
11.9876,8.91798,0.0129099
11.9756,8.92398,0.00686169
11.9636,8.92999,0.000806808
11.9516,8.936,-0.00525856
11.9396,8.94202,-0.0113297
11.3456,8.66185,0.0261345
11.3333,8.66785,0.0200081
11.321,8.67386,0.013876
11.3087,8.67989,0.00773239
11.2963,8.68592,0.0015831
11.2839,8.69195,-0.00457478
10.5998,8.39637,0.0227423
10.5871,8.40243,0.0164909
10.5743,8.4085,0.010231
10.5616,8.41457,0.00396442
10.5488,8.42066,-0.00231075
10.536,8.42675,-0.00859737
9.96298,8.1488,0.0320396
9.94986,8.15484,0.0257244
9.93672,8.16088,0.0193968
9.92356,8.16693,0.0130644
9.91039,8.17299,0.00672054
9.89719,8.17906,0.000370026
9.31897,7.92714,0.0246782
9.30543,7.93321,0.0182514
9.29188,7.93928,0.0118179
9.2783,7.94537,0.00537491
9.26471,7.95147,-0.00107956
9.25109,7.95757,-0.00753975
8.57677,7.68069,0.0109224
8.56272,7.68679,0.00437164
8.54866,7.6929,-0.00218964
8.53457,7.69902,-0.00876045
8.52046,7.70514,-0.0153389
8.50634,7.71128,-0.0219307
7.5579,4.64416,1.56909
7.54588,4.64847,1.56402
6.96768,1.99317,2.99306
6.95779,1.99606,2.98927
6.9479,1.99896,2.98547
6.93799,2.00187,2.98166
6.92808,2.00478,2.97785
6.91814,2.00769,2.97404
6.42113,1.78101,3.00086
6.41093,1.78389,2.99701
6.40072,1.78678,2.99315
6.3905,1.78967,2.98929
6.38027,1.79257,2.98542
6.37002,1.79547,2.98154
5.86691,1.58858,2.9955
5.85636,1.59148,2.99156
5.8458,1.59439,2.98762
5.83522,1.5973,2.98367
5.82464,1.60021,2.97971
5.23384,1.36087,2.994
5.22288,1.3638,2.98996
5.21191,1.36673,2.98591
5.20092,1.36967,2.98186
5.18991,1.37261,2.9778
4.68972,1.15706,2.99744
4.6784,1.16001,2.99331
4.66706,1.16297,2.98917
4.65571,1.16593,2.98502
4.64434,1.1689,2.98087
4.63296,1.17187,2.97671
3.87079,5.96435,0.0135632
3.85323,5.97064,0.00615311
3.83564,5.97694,-0.00126743
3.81802,5.98325,-0.00870037
3.80037,5.98956,-0.0161448
3.5785,5.60897,0.159135
3.56097,5.61503,0.151865
3.54341,5.62109,0.144588
3.52583,5.62717,0.137297
3.50821,5.63326,0.129992
3.67889,3.81288,1.23026
3.66349,3.81765,1.22419
3.64805,3.82243,1.21812
3.57649,3.40134,1.44902
3.56141,3.40584,1.44319
3.54632,3.41034,1.43734
3.5312,3.41486,1.43149
3.51606,3.41937,1.42563
3.5009,3.4239,1.41977
2.99518,3.15792,1.4677
2.97966,3.16248,1.46174
2.96411,3.16704,1.45577
2.94854,3.1716,1.44979
2.93295,3.17617,1.4438
2.44916,2.9046,1.49968
2.43324,2.90911,1.49366
2.41729,2.91362,1.48763
2.40132,2.91813,1.4816
2.38532,2.92266,1.47555
2.3693,2.92719,1.46949
1.76886,2.71689,1.46475
1.75226,2.72146,1.45856
1.73564,2.72603,1.45235
1.719,2.73062,1.44613
1.70232,2.73521,1.4399
0.965364,2.50118,1.42
0.947926,2.50584,1.41357
0.930458,2.51051,1.40713
0.912961,2.51518,1.40068
0.895433,2.51987,1.39421
0.142829,2.34342,1.33733
0.124397,2.34823,1.3306
0.105933,2.35305,1.32386
0.0874362,2.35788,1.31711
0.0689073,2.36271,1.31034
-0.673191,2.1674,1.26672
-0.692622,2.17232,1.25972
-0.712088,2.17724,1.2527
-0.731591,2.18217,1.24567
-0.751127,2.18711,1.23863
-1.7565,2.02598,1.11906
-1.77748,2.03115,1.11158
-1.79849,2.03633,1.10408
-1.81955,2.04152,1.09657
-2.09698,2.10988,0.997635
-3.5099,3.29649,0.00368786
-3.5353,3.30311,-0.00558472
-3.56074,3.30975,-0.0148735
-3.58624,3.31641,-0.0241861
-4.11959,3.03883,0.024663
-4.14575,3.04544,0.0152359
-4.17197,3.05207,0.00578594
-4.19824,3.05871,-0.00368309
-4.22457,3.06537,-0.0131721
-4.89053,2.7982,0.00139236
-4.91787,2.80494,-0.00835896
-4.94527,2.81169,-0.0181293
-4.97273,2.81846,-0.0279217
-5.00025,2.82524,-0.0377321
-5.5455,2.57078,-0.00492954
-5.57381,2.57754,-0.014904
-5.60219,2.58433,-0.0249023
-5.63063,2.59112,-0.0349236
-6.12474,2.28831,0.037014
-6.15384,2.29502,0.0269012
-6.18301,2.30175,0.0167685
-6.21225,2.3085,0.00661182
-6.24155,2.31525,-0.00356865
-6.78153,2.06502,0.0278845
-6.81174,2.0718,0.0174971
-6.84202,2.0786,0.00708485
-6.87237,2.08542,-0.00335121
-6.90279,2.09225,-0.0138102
-7.56029,1.82354,0.00345325
-7.59192,1.83044,-0.00730419
-7.62362,1.83736,-0.0180864
-7.6554,1.84429,-0.0288944
-7.68725,1.85124,-0.0397263
-8.18407,1.56957,0.0192747
-8.2168,1.57649,0.00827312
-8.24962,1.58342,-0.00275803
-8.28251,1.59037,-0.013813
-8.78708,1.32106,0.0363169
-8.82094,1.328,0.0250645
-8.85487,1.33496,0.0137835
-8.8889,1.34193,0.00247478
-8.92301,1.34892,-0.00886345
-9.55548,1.06773,0.0210209
-9.59093,1.07476,0.00937462
-9.62646,1.0818,-0.00229645
-9.6621,1.08886,-0.0140018
-9.69783,1.09595,-0.0257397
-10.2166,0.843106,0.0117388
-10.2536,0.850233,-0.000278473
-10.2906,0.857382,-0.012332
-10.3277,0.86455,-0.0244169
-10.825,0.585279,0.0330992
-10.8632,0.592408,0.0208006
-10.9016,0.599558,0.00846577
-10.94,0.606724,-0.00389862
-11.5705,0.315952,0.032012
-11.6106,0.323177,0.0192623
-11.6508,0.330423,0.00647545
-11.6912,0.337692,-0.00634861
-12.1702,0.0727272,0.0466633
-12.2119,0.0800056,0.0335503
-12.2537,0.0873051,0.0204
-12.2956,0.0946264,0.00721073
-12.837,-0.149549,0.0348158
-12.8805,-0.142172,0.0212498
-12.9242,-0.134771,0.00764084
-12.968,-0.127349,-0.00600815
-13.5753,-0.422031,0.037117
-13.621,-0.414568,0.023035
-13.6668,-0.407084,0.00891209
-13.7128,-0.399575,-0.0052557
-14.3102,-0.616573,-0.0054245
-14.3584,-0.608911,-0.0201454
-14.4067,-0.601224,-0.034914
-14.9153,-0.855979,0.00585747
-14.9656,-0.848222,-0.00937366
-15.0161,-0.840436,-0.0246582
-15.0667,-0.832624,-0.0399933
-15.4724,-1.12495,0.0446138
-15.5247,-1.1172,0.0289707
-15.5772,-1.10943,0.0132713
-15.6298,-1.10162,-0.00248146
15.5071,10.1864,-0.000512123
15.497,10.1923,-0.00613117
15.4869,10.1982,-0.0117579
15.4768,10.2042,-0.0173883
15.4666,10.2101,-0.0230293
15.4564,10.216,-0.028677
14.7827,9.91043,0.00678825
14.7723,9.91636,0.00108719
14.7618,9.92229,-0.00461864
14.7513,9.92824,-0.010335
14.7408,9.93419,-0.016057
14.7303,9.94014,-0.0217848
14.0755,9.63945,0.0148258
14.0647,9.64539,0.00904655
14.0539,9.65133,0.0032568
14.043,9.65729,-0.00253963
14.0322,9.66325,-0.00834274
14.0213,9.66922,-0.0141535
13.3965,9.36716,0.029644
13.3853,9.37311,0.0237894
13.3742,9.37906,0.0179291
13.363,9.38502,0.0120592
13.3519,9.39099,0.00618362
13.3407,9.39696,0.0002985
13.3295,9.40294,-0.0055933
12.7526,9.17267,0.00637436
12.7411,9.17865,0.00042057
12.7295,9.18463,-0.00553894
12.718,9.19062,-0.0115099
12.7064,9.19661,-0.0174856
12.6948,9.20262,-0.0234718
12.0941,8.91241,0.0185204
12.0822,8.91838,0.0124903
12.0703,8.92437,0.00645065
12.0584,8.93037,0.000401497
12.0465,8.93638,-0.00565338
12.0346,8.94239,-0.0117207
11.4407,8.66188,0.0260592
11.4285,8.66788,0.0199394
11.4163,8.67388,0.0138168
11.404,8.67989,0.00768185
11.3917,8.68592,0.00153923
11.3795,8.69194,-0.00460815
10.6957,8.39582,0.023159
10.683,8.40187,0.0169163
10.6704,8.40793,0.0106649
10.6577,8.414,0.00440788
10.645,8.42007,-0.00185966
10.6322,8.42616,-0.00813484
10.0465,8.15416,0.0263805
10.0334,8.16019,0.0200682
10.0203,8.16623,0.0137434
10.0072,8.17228,0.0074091
9.99413,8.17834,0.00106716
9.41629,7.92608,0.025713
9.40285,7.93214,0.0192976
9.38938,7.93821,0.0128746
9.3759,7.94428,0.00644207
9.36239,7.95037,-1.90735e-06
9.34887,7.95646,-0.00645256
8.67519,7.6793,0.0123587
8.66124,7.68539,0.00581741
8.64726,7.69148,-0.000728607
8.63327,7.6976,-0.00728989
8.61926,7.70371,-0.0138597
8.60523,7.70983,-0.0204353
7.59192,4.66005,1.55021
7.57991,4.66437,1.54513
7.03405,1.99225,2.99414
7.02423,1.99514,2.99035
7.01439,1.99804,2.98656
7.00454,2.00094,2.98276
6.99468,2.00384,2.97896
6.9848,2.00675,2.97516
6.47807,1.7829,2.99831
6.46792,1.78578,2.99446
6.45775,1.78867,2.9906
6.44758,1.79156,2.98674
6.43739,1.79445,2.98287
5.93487,1.58738,2.9971
5.92439,1.59027,2.99317
5.91389,1.59317,2.98923
5.90338,1.59608,2.98529
5.89285,1.59899,2.98134
5.88231,1.6019,2.97739
5.30284,1.3594,2.99597
5.29194,1.36232,2.99194
5.28103,1.36525,2.9879
5.27011,1.36818,2.98385
5.25917,1.37111,2.9798
5.24822,1.37405,2.97575
4.74836,1.15825,2.99565
4.7371,1.1612,2.99152
4.72581,1.16416,2.98739
4.71451,1.16712,2.98324
4.70319,1.17008,2.9791
4.36449,3.62523,1.46869
3.95928,5.96652,0.0108166
3.94181,5.9728,0.00341415
3.92431,5.9791,-0.00400162
3.90679,5.9854,-0.0114298
3.88923,5.99171,-0.0188684
3.6833,5.60511,0.163723
3.66589,5.61115,0.156472
3.64846,5.61721,0.149209
3.63099,5.62327,0.141936
3.6135,5.62935,0.134649
3.59597,5.63543,0.127353
3.75581,3.81451,1.22811
3.74048,3.81927,1.22205
3.65139,3.40298,1.44694
3.63639,3.40747,1.44111
3.62137,3.41197,1.43527
3.60633,3.41648,1.42943
3.59127,3.42099,1.42357
3.07065,3.15904,1.46609
3.05521,3.16359,1.46013
3.03974,3.16814,1.45417
3.02425,3.17271,1.4482
3.00873,3.17727,1.44221
2.52502,2.90562,1.49828
2.50918,2.91012,1.49227
2.49332,2.91462,1.48625
2.47743,2.91914,1.48022
2.46151,2.92366,1.47418
1.84603,2.71761,1.46373
1.82952,2.72218,1.45754
1.81298,2.72675,1.45134
1.79642,2.73133,1.44512
1.77982,2.73591,1.4389
1.04421,2.50153,1.41946
1.02686,2.50618,1.41303
1.00948,2.51084,1.4066
0.992077,2.51551,1.40016
0.974639,2.52019,1.3937
0.223896,2.34331,1.33734
0.205561,2.34811,1.33062
0.187193,2.35292,1.32389
0.168793,2.35774,1.31715
0.150361,2.36257,1.31039
-0.589976,2.16698,1.26721
-0.609304,2.17189,1.26022
-0.628667,2.17681,1.25321
-0.648065,2.18173,1.2462
-0.667498,2.18666,1.23917
-1.66961,2.02493,1.12037
-1.69047,2.03009,1.11291
-1.71137,2.03525,1.10542
-1.73232,2.04043,1.09793
-1.7533,2.04562,1.09042
-3.40887,3.29481,0.00586033
-3.43412,3.30142,-0.00339317
-3.45942,3.30805,-0.0126677
-3.48477,3.31469,-0.0219584
-3.51017,3.32134,-0.03127
-4.0433,3.04348,0.0179005
-4.06937,3.0501,0.00846958
-4.09549,3.05673,-0.000979424
-4.12167,3.06337,-0.0104513
-4.81302,2.80236,-0.0048666
-4.84026,2.8091,-0.014616
-4.86756,2.81585,-0.0243874
-4.89491,2.82261,-0.0341797
-5.43895,2.56791,-0.000902176
-5.4671,2.57467,-0.0108576
-5.49531,2.58143,-0.0208311
-5.52358,2.58822,-0.0308304
-5.55191,2.59501,-0.0408487
-6.0459,2.29197,0.0314121
-6.07489,2.29868,0.0213022
-6.10395,2.30541,0.0111713
-6.13307,2.31215,0.00101566
-6.70154,2.06831,0.022727
-6.73164,2.07509,0.0123405
-6.7618,2.08189,0.0019331
-6.79202,2.0887,-0.00849915
-7.4787,1.82638,-0.00115013
-7.5102,1.83327,-0.011899
-7.54178,1.84018,-0.0226784
-7.57343,1.84711,-0.0334845
-8.06889,1.56517,0.026103
-8.10142,1.57207,0.01513
-8.13401,1.57898,0.00413418
-8.16669,1.58591,-0.0068903
-8.19945,1.59286,-0.0179405
-8.70331,1.32324,0.0326405
-8.73702,1.33017,0.0213938
-8.77082,1.33712,0.0101213
-8.80471,1.34409,-0.00118446
-9.46987,1.06949,0.0179443
-9.50517,1.07651,0.0063076
-9.54056,1.08355,-0.00535679
-9.57605,1.09061,-0.0170546
-10.1292,0.844429,0.00928593
-10.166,0.851549,-0.00272083
-10.2029,0.858691,-0.0147629
-10.2399,0.865852,-0.0268373
-10.6982,0.579223,0.0434065
-10.7362,0.586327,0.0311508
-10.7743,0.593449,0.0188627
-10.8125,0.600593,0.00653839
-10.8508,0.607756,-0.00581837
-11.4794,0.316524,0.0308228
-11.5194,0.323738,0.0180902
-11.5594,0.330975,0.0053196
-11.5996,0.338235,-0.00749016
-12.0773,0.0729132,0.0461359
-12.1188,0.080183,0.03304
-12.1604,0.087472,0.019907
-12.2021,0.0947847,0.00673485
-12.7417,-0.149761,0.0350056
-12.785,-0.142394,0.0214577
-12.8285,-0.135005,0.00786972
-12.8721,-0.127593,-0.00576019
-13.4772,-0.422677,0.0381546
-13.5227,-0.415227,0.0240965
-13.5683,-0.407755,0.00999641
-13.6141,-0.400259,-0.00414848
-14.2086,-0.617763,-0.00342464
-14.2566,-0.610116,-0.018117
-14.3047,-0.602443,-0.0328579
-14.3529,-0.594746,-0.0476465
-14.8108,-0.857631,0.00877094
-14.8609,-0.849887,-0.00643158
-14.9111,-0.842118,-0.0216837
-14.9615,-0.834324,-0.0369864
-15.3656,-1.12688,0.0482903
-15.4176,-1.11915,0.0326805
-15.4698,-1.11139,0.0170145
-15.5221,-1.1036,0.00129509
15.6091,10.1827,0.00305748
15.5991,10.1886,-0.00255013
15.589,10.1945,-0.00816345
15.579,10.2004,-0.0137844
15.5689,10.2063,-0.019413
15.5588,10.2123,-0.0250473
15.5487,10.2182,-0.0306902
14.8854,9.90631,0.0107727
14.875,9.91223,0.00508499
14.8647,9.91815,-0.000610352
14.8543,9.92407,-0.00630951
14.8438,9.93001,-0.0120192
14.8334,9.93596,-0.0177355
14.823,9.94191,-0.0234594
14.1789,9.63492,0.0192308
14.1682,9.64084,0.013464
14.1575,9.64678,0.00768757
14.1467,9.65272,0.00190449
14.136,9.65867,-0.00388527
14.1252,9.66462,-0.0096817
14.1144,9.67059,-0.0154858
13.4895,9.36817,0.028614
13.4785,9.37411,0.0227661
13.4674,9.38006,0.0169115
13.4563,9.38601,0.0110512
13.4452,9.39197,0.00518131
13.4341,9.39794,-0.00069809
12.8465,9.17346,0.0056076
12.835,9.17942,-0.000340462
12.8236,9.1854,-0.00629616
12.8121,9.19138,-0.0122557
12.8006,9.19737,-0.0182285
12.7891,9.20337,-0.0242052
12.1884,8.91281,0.0180941
12.1766,8.91879,0.0120716
12.1648,8.92477,0.00603771
12.153,8.93076,-1.90735e-06
12.1412,8.93676,-0.00605202
12.1293,8.94276,-0.012105
11.5356,8.66191,0.0259829
11.5234,8.6679,0.0198717
11.5113,8.67389,0.0137558
11.4991,8.6799,0.00763035
11.4869,8.68591,0.00149727
11.4747,8.69193,-0.00464249
10.7912,8.39527,0.0235739
10.7787,8.40131,0.0173407
10.7661,8.40737,0.0110989
10.7535,8.41342,0.00485039
10.7409,8.41949,-0.00140858
10.7282,8.42557,-0.00767517
10.1428,8.15348,0.0270395
10.1298,8.15951,0.0207338
10.1168,8.16554,0.0144205
10.1038,8.17158,0.00809574
10.0908,8.17763,0.00176239
10.0777,8.18368,-0.00457668
9.51333,7.92503,0.0267429
9.49997,7.93108,0.020339
9.4866,7.93714,0.0139246
9.4732,7.94321,0.00750351
9.45978,7.94928,0.00107193
9.44635,7.95536,-0.00536919
8.75945,7.68399,0.00726318
8.74557,7.69007,0.000725746
8.73167,7.69617,-0.00582123
8.71775,7.70228,-0.0123825
8.70381,7.7084,-0.0189486
7.61402,4.68031,1.52618
7.09045,1.99422,2.99144
7.08067,1.99712,2.98765
7.07088,2.00001,2.98386
7.06107,2.00291,2.98007
7.05126,2.00581,2.97627
6.54499,1.78191,2.99961
6.5349,1.78478,2.99576
6.52479,1.78766,2.99191
6.51468,1.79055,2.98806
6.50455,1.79344,2.9842
6.49441,1.79633,2.98033
6.00262,1.58618,2.99869
5.99219,1.58907,2.99477
5.98176,1.59197,2.99084
5.97131,1.59487,2.9869
5.96084,1.59777,2.98296
5.95036,1.60068,2.97902
5.36077,1.36086,2.99391
5.34993,1.36377,2.98988
5.33907,1.3667,2.98584
5.3282,1.36963,2.9818
5.31731,1.37256,2.97776
4.81808,1.1565,2.99799
4.80688,1.15944,2.99387
4.79566,1.16239,2.98974
4.78443,1.16534,2.98561
4.77318,1.1683,2.98147
4.76192,1.17126,2.97733
4.35193,3.65395,1.43211
4.06494,5.96241,0.0154619
4.04759,5.96868,0.00807667
4.03021,5.97496,0.000679016
4.0128,5.98125,-0.00672913
3.99537,5.98754,-0.0141506
3.9779,5.99385,-0.0215845
3.77042,5.6073,0.16106
3.7531,5.61334,0.153815
3.73576,5.61939,0.146559
3.71838,5.62544,0.139294
3.70098,5.63152,0.132011
3.84779,3.81138,1.23202
3.83256,3.81613,1.22597
3.8173,3.8209,1.21992
3.72613,3.40461,1.44486
3.71121,3.4091,1.43904
3.69626,3.4136,1.4332
3.68129,3.4181,1.42736
