3.73663,10.3399,1.84687
3.73601,10.3439,1.84709
3.73538,10.3478,1.84731
3.73476,10.3517,1.84753
6.47455,-0.244295,0.148397
5.41946,-0.197016,1.2417
4.90375,0.147793,1.7409
4.90314,0.151661,1.74112
4.90252,0.15553,1.74133
4.90191,0.159398,1.74154
4.9013,0.163266,1.74176
4.90069,0.167134,1.74197
4.88418,0.271568,1.74774
4.88357,0.275436,1.74795
4.88296,0.279304,1.74816
4.88235,0.283171,1.74838
4.88173,0.287039,1.74859
4.88112,0.290907,1.7488
5.3081,6.56795,0.617575
4.63323,7.13204,1.25849
4.63259,7.13604,1.25872
4.63194,7.14004,1.25895
4.6313,7.14403,1.25918
4.15299,7.73716,1.69228
4.15236,7.74108,1.69251
4.15173,7.745,1.69273
3.73476,10.3573,1.84108
3.73413,10.3612,1.8413
3.73351,10.3651,1.84152
3.73289,10.369,1.84175
3.73226,10.3729,1.84197
3.73164,10.3768,1.84219
3.73101,10.3807,1.84241
6.53835,-0.610549,0.11586
4.90887,0.120495,1.73281
4.90826,0.124364,1.73302
4.90765,0.128233,1.73324
4.90704,0.132102,1.73345
4.90642,0.135971,1.73367
4.90581,0.13984,1.73388
4.9052,0.143709,1.73409
4.88135,0.294586,1.74242
4.88074,0.298455,1.74264
4.88013,0.302323,1.74285
4.87951,0.306191,1.74306
5.2613,0.79948,1.29148
5.64683,0.822429,0.887474
6.28445,0.872276,0.217995
5.31041,6.56077,0.609821
5.30971,6.56486,0.610104
4.63724,7.11316,1.25041
4.6366,7.11716,1.25064
4.63596,7.12115,1.25088
4.63531,7.12515,1.25111
4.63467,7.12915,1.25134
4.15557,7.72659,1.6849
4.15494,7.73051,1.68512
4.15432,7.73443,1.68534
3.73101,10.3863,1.83595
3.73039,10.3902,1.83618
3.72976,10.3941,1.8364
3.72914,10.3981,1.83662
6.47755,-0.249068,0.133442
5.81276,-0.205307,0.821163
4.91644,0.0777076,1.72386
4.91583,0.0815775,1.72408
4.91522,0.0854473,1.72429
4.9146,0.0893172,1.7245
4.91399,0.093187,1.72472
4.91338,0.0970568,1.72493
4.91277,0.100927,1.72514
4.91216,0.104796,1.72536
4.91154,0.108666,1.72557
4.91093,0.112536,1.72579
4.91032,0.116406,1.726
4.87973,0.309874,1.73668
4.87912,0.313743,1.73689
4.87851,0.317612,1.73711
4.8779,0.321481,1.73732
5.26158,0.803336,1.28489
5.64718,0.826361,0.880692
6.28485,0.876333,0.210968
5.31273,6.55358,0.602064
5.31203,6.55768,0.602348
4.64125,7.09427,1.24234
4.64061,7.09827,1.24257
4.63997,7.10226,1.2428
4.63933,7.10626,1.24303
4.63869,7.11026,1.24326
4.15753,7.71993,1.67773
4.1569,7.72386,1.67795
3.72914,10.4037,1.83016
3.72852,10.4076,1.83039
3.72789,10.4115,1.83061
3.72727,10.4154,1.83083
4.92707,0.0155482,1.71384
4.92646,0.019419,1.71405
4.92585,0.0232898,1.71427
4.92524,0.0271606,1.71448
4.92462,0.0310314,1.7147
4.92401,0.0349022,1.71491
4.9234,0.0387729,1.71512
4.92279,0.0426437,1.71533
4.92218,0.0465144,1.71555
4.92156,0.0503851,1.71576
4.92095,0.0542558,1.71597
4.92034,0.0581265,1.71619
4.91973,0.0619971,1.71641
4.91912,0.0658678,1.71662
4.91851,0.0697384,1.71683
4.91789,0.0736091,1.71704
4.87812,0.325168,1.73093
4.87751,0.329037,1.73115
4.8769,0.332907,1.73136
4.87629,0.336777,1.73157
4.87567,0.340646,1.73179
4.87506,0.344516,1.732
5.26186,0.807193,1.27829
5.64754,0.830295,0.873903
6.28524,0.880392,0.203939
5.31575,6.54229,0.594023
5.31504,6.54638,0.594307
5.31434,6.55048,0.594587
4.64462,7.07937,1.23449
4.64398,7.08337,1.23472
4.64334,7.08736,1.23495
4.6427,7.09136,1.23518
4.16136,7.7015,1.6699
4.16074,7.70543,1.67012
4.16011,7.70935,1.67034
4.15949,7.71328,1.67056
4.15886,7.7172,1.67079
3.72727,10.421,1.82437
3.72664,10.4249,1.82459
3.72602,10.4288,1.82481
3.7254,10.4327,1.82503
5.42451,-0.206074,1.21391
4.93343,-0.0195357,1.70531
4.93281,-0.015664,1.70552
4.9322,-0.0117924,1.70574
4.93159,-0.00792073,1.70595
4.93098,-0.0040491,1.70617
4.93036,-0.00017749,1.70638
4.92975,0.00369411,1.70659
4.92914,0.00756569,1.70681
4.92853,0.0114373,1.70702
4.87528,0.348207,1.72561
4.87467,0.352078,1.72583
4.87406,0.355948,1.72604
4.87345,0.359818,1.72625
4.87284,0.363688,1.72647
4.87222,0.367559,1.72668
4.87161,0.371429,1.7269
4.871,0.375299,1.72711
5.26215,0.811052,1.27169
5.64789,0.834229,0.867113
5.31736,6.53919,0.586544
4.64735,7.06846,1.22687
4.64671,7.07246,1.2271
4.64607,7.07646,1.22733
4.16395,7.69092,1.6625
4.16332,7.69484,1.66273
4.1627,7.69877,1.66295
3.72539,10.4384,1.81857
3.72477,10.4423,1.81879
3.72415,10.4462,1.81901
6.4817,-0.254154,0.111134
5.8165,-0.210217,0.799816
4.93794,-0.0430162,1.69742
4.93733,-0.0391437,1.69763
4.93672,-0.0352712,1.69784
4.93611,-0.0313988,1.69806
4.93549,-0.0275264,1.69827
4.93488,-0.023654,1.69849
4.87122,0.378996,1.72072
4.87061,0.382867,1.72093
4.87,0.386738,1.72115
4.86939,0.390609,1.72136
4.86878,0.39448,1.72157
4.86816,0.398351,1.72179
4.86755,0.402221,1.722
4.86694,0.406092,1.72222
4.86633,0.409963,1.72243
4.86572,0.413834,1.72264
5.26243,0.814913,1.26509
6.28675,0.884364,0.18959
5.31968,6.53199,0.578777
5.31898,6.53609,0.57906
4.64945,7.06155,1.21948
4.64881,7.06555,1.21971
4.16654,7.68033,1.65511
4.16591,7.68425,1.65533
4.16529,7.68818,1.65555
3.72414,10.4518,1.81255
3.72352,10.4557,1.81277
3.72289,10.4596,1.81299
3.72227,10.4635,1.81321
4.94124,-0.0587593,1.68995
4.94062,-0.054886,1.69016
4.94001,-0.0510128,1.69038
4.9394,-0.0471396,1.69059
4.86593,0.417539,1.71625
4.86532,0.42141,1.71646
4.86471,0.425282,1.71668
4.8641,0.429153,1.71689
4.86349,0.433025,1.7171
4.86287,0.436896,1.71732
4.86226,0.440767,1.71754
4.86165,0.444639,1.71775
4.86104,0.44851,1.71796
5.64924,0.838073,0.853292
6.28715,0.888427,0.182554
6.25375,1.08348,0.195997
6.25303,1.08763,0.196283
6.25232,1.09178,0.196571
6.25161,1.09593,0.196856
6.2509,1.10008,0.197142
6.25019,1.10423,0.197428
6.24948,1.10838,0.197714
6.24877,1.11252,0.198
6.24806,1.11667,0.198284
6.24735,1.12082,0.198572
6.24664,1.12497,0.198858
6.24593,1.12912,0.199142
6.24522,1.13327,0.19943
6.24451,1.13742,0.199717
6.2438,1.14157,0.200001
6.24309,1.14571,0.200289
6.24238,1.14986,0.200571
6.24167,1.15401,0.200859
6.24096,1.15816,0.201147
6.24025,1.16231,0.201429
6.23954,1.16646,0.201715
6.23883,1.17061,0.202003
6.23811,1.17475,0.202291
6.23741,1.1789,0.202576
6.2367,1.18305,0.202858
5.322,6.52479,0.571007
5.3213,6.52889,0.571293
4.65282,7.04663,1.21162
4.65218,7.05064,1.21185
4.65154,7.05464,1.21208
4.6509,7.05864,1.21231
4.16975,7.66581,1.64748
4.16913,7.66973,1.64771
4.1685,7.67366,1.64793
4.16787,7.67759,1.64815
3.72227,10.4692,1.80675
3.72164,10.4731,1.80697
3.72102,10.477,1.80719
3.7079,10.5592,1.81186
3.70727,10.5631,1.81208
3.70665,10.567,1.81231
3.70602,10.5709,1.81253
3.7054,10.5748,1.81275
3.70477,10.5788,1.81297
3.70415,10.5827,1.8132
3.70353,10.5866,1.81342
3.7029,10.5905,1.81364
3.70227,10.5944,1.81386
3.70165,10.5983,1.81408
3.70103,10.6022,1.8143
3.7004,10.6062,1.81453
3.69977,10.6101,1.81475
6.48471,-0.258935,0.0961533
5.42798,-0.210896,1.19316
4.94392,-0.0706344,1.6827
4.94331,-0.0667604,1.68291
4.9427,-0.0628864,1.68312
4.86126,0.452222,1.71157
4.86065,0.456094,1.71178
4.86003,0.459966,1.71199
4.85942,0.463838,1.71221
4.85881,0.46771,1.71243
4.8582,0.471582,1.71264
5.26363,0.81868,1.25166
5.6496,0.842012,0.846493
6.28754,0.892491,0.175518
6.25698,1.07098,0.187819
6.25627,1.07513,0.188107
6.25556,1.07928,0.188391
6.23708,1.18717,0.195829
6.23637,1.19132,0.196112
6.23566,1.19547,0.196398
6.23495,1.19962,0.196684
5.32432,6.51759,0.563236
5.32362,6.52169,0.563519
4.65556,7.03571,1.20399
4.65491,7.03972,1.20422
4.65427,7.04372,1.20445
4.17235,7.65521,1.64008
4.17172,7.65913,1.6403
4.17109,7.66306,1.64052
3.72102,10.4826,1.80072
3.72039,10.4865,1.80094
3.71977,10.4904,1.80117
3.71914,10.4943,1.80139
3.71852,10.4983,1.80161
3.71727,10.5061,1.80205
3.71664,10.51,1.80228
3.71602,10.5139,1.8025
3.71539,10.5178,1.80272
3.71477,10.5218,1.80295
3.71415,10.5257,1.80317
3.71352,10.5296,1.80339
3.71289,10.5335,1.80361
3.71227,10.5374,1.80383
3.71165,10.5413,1.80405
3.71102,10.5452,1.80428
3.71039,10.5492,1.8045
3.70977,10.5531,1.80473
3.70915,10.557,1.80494
3.69977,10.6157,1.80828
3.69915,10.6196,1.8085
3.69852,10.6235,1.80873
3.6979,10.6275,1.80895
3.69727,10.6314,1.80917
5.82024,-0.215132,0.778448
4.94722,-0.0863888,1.67522
4.94661,-0.082514,1.67543
4.94599,-0.0786393,1.67565
4.94538,-0.0747645,1.67586
4.85842,0.475299,1.70624
4.8578,0.479171,1.70645
4.85719,0.483044,1.70667
4.85658,0.486917,1.70688
4.85597,0.490789,1.70709
5.26392,0.822545,1.24504
5.64995,0.845952,0.839695
6.28794,0.896557,0.168474
6.25879,1.06678,0.180206
6.23534,1.20374,0.18965
6.23463,1.20789,0.189934
6.23392,1.21204,0.190222
6.23321,1.21619,0.190508
6.23249,1.22034,0.190798
6.23178,1.22449,0.191082
5.32664,6.51038,0.555458
5.32594,6.51448,0.555744
4.65765,7.02879,1.19659
4.65701,7.0328,1.19682
4.17431,7.64853,1.63289
4.17368,7.65246,1.63312
3.71852,10.5039,1.79514
3.69727,10.637,1.8027
3.69664,10.6409,1.80292
3.69601,10.6449,1.80315
3.69539,10.6488,1.80337
4.95052,-0.102149,1.66774
4.9499,-0.0982736,1.66796
4.94929,-0.0943981,1.66817
4.94868,-0.0905226,1.66839
4.85618,0.49451,1.7007
4.85557,0.498384,1.70091
4.85496,0.502257,1.70113
4.85435,0.50613,1.70134
4.85373,0.510003,1.70156
4.85312,0.513877,1.70177
5.2642,0.82641,1.23843
6.28834,0.900624,0.161428
6.26061,1.06257,0.172594
6.23217,1.22862,0.184042
6.23146,1.23277,0.184326
6.23075,1.23692,0.184616
6.23004,1.24107,0.184902
6.22933,1.24522,0.185188
6.22862,1.24937,0.185474
6.22791,1.25352,0.185759
6.2272,1.25767,0.186045
5.32897,6.50317,0.547684
5.32826,6.50727,0.547966
4.66039,7.01787,1.18895
4.65974,7.02187,1.18918
4.6591,7.02587,1.18942
4.1769,7.63793,1.62549
4.17627,7.64186,1.62571
4.17565,7.64579,1.62593
3.69538,10.6544,1.7969
3.69476,10.6583,1.79712
3.69414,10.6623,1.79734
3.69351,10.6662,1.79756
5.82297,-0.219758,0.764103
4.95382,-0.117916,1.66027
4.95321,-0.114039,1.66048
4.95259,-0.110163,1.66069
4.95198,-0.106287,1.66091
4.85334,0.517603,1.69536
4.85273,0.521476,1.69558
4.85212,0.52535,1.6958
4.85151,0.529224,1.69601
4.85089,0.533098,1.69622
4.85028,0.536972,1.69644
4.84967,0.540846,1.69665
4.84906,0.544719,1.69686
4.84844,0.548593,1.69708
4.84783,0.552467,1.69729
4.84722,0.556341,1.69751
4.84661,0.560214,1.69772
4.84599,0.564088,1.69793
4.84538,0.567962,1.69815
4.84477,0.571836,1.69836
4.84416,0.575709,1.69858
4.84354,0.579583,1.69879
4.84293,0.583457,1.69901
4.84232,0.58733,1.69922
5.26449,0.830277,1.23182
5.65131,0.849803,0.825855
6.28874,0.904693,0.154383
6.26242,1.05837,0.16498
6.22759,1.2618,0.179003
6.22688,1.26595,0.179291
6.22617,1.27011,0.179577
6.22545,1.27426,0.179865
6.22474,1.27841,0.180153
5.33059,6.50006,0.540186
4.66248,7.01094,1.18155
4.66184,7.01494,1.18178
4.18012,7.62339,1.61785
4.17949,7.62732,1.61807
4.17887,7.63125,1.6183
4.17824,7.63518,1.61852
3.6935,10.6718,1.79109
3.69288,10.6757,1.79131
3.69225,10.6797,1.79153
3.69163,10.6836,1.79175
3.691,10.6875,1.79198
6.49002,-0.264344,0.0664368
4.95589,-0.125934,1.65321
4.95528,-0.122057,1.65342
4.84254,0.59107,1.69281
4.84192,0.594944,1.69303
4.84131,0.598819,1.69324
4.8407,0.602693,1.69346
4.84008,0.606567,1.69367
4.83947,0.610442,1.69389
4.83886,0.614316,1.6941
4.83825,0.61819,1.69431
4.83764,0.622064,1.69453
4.83702,0.625938,1.69474
4.83641,0.629813,1.69496
4.83579,0.633687,1.69517
5.26477,0.834145,1.2252
5.65166,0.853747,0.819046
6.28913,0.908763,0.147333
6.22513,1.28255,0.173107
6.22442,1.2867,0.173397
6.22371,1.29085,0.173681
6.223,1.295,0.173969
6.22228,1.29915,0.174255
6.21944,1.31576,0.175396
6.21873,1.31991,0.175688
6.21802,1.32406,0.17597
6.20593,1.39462,0.18084
6.20522,1.39877,0.181124
6.20451,1.40293,0.18141
6.2038,1.40708,0.181694
6.20309,1.41123,0.181984
6.20238,1.41538,0.18227
6.20167,1.41953,0.182554
6.20096,1.42368,0.18284
6.20025,1.42783,0.183128
6.19954,1.43198,0.183413
6.19883,1.43613,0.183699
6.19812,1.44028,0.183985
6.19741,1.44443,0.184273
6.1967,1.44858,0.184559
5.33291,6.49285,0.532398
5.33221,6.49695,0.532684
4.66522,7,1.1739
4.66458,7.00401,1.17414
4.66394,7.00801,1.17437
4.18334,7.60884,1.61021
4.18271,7.61277,1.61044
4.18209,7.6167,1.61066
4.18146,7.62063,1.61089
3.691,10.6932,1.7855
3.69037,10.6971,1.78572
3.68975,10.701,1.78594
3.68912,10.7049,1.78617
3.68849,10.7088,1.78639
3.68787,10.7127,1.78661
5.82568,-0.224387,0.749758
4.9592,-0.141711,1.64573
4.95858,-0.137833,1.64594
4.95797,-0.133955,1.64616
4.95736,-0.130078,1.64637
4.83601,0.637436,1.68877
4.8354,0.641311,1.68898
4.83479,0.645185,1.68919
4.83417,0.64906,1.68941
4.83356,0.652935,1.68962
5.26506,0.838015,1.21858
5.65202,0.857693,0.812235
6.28953,0.912835,0.140282
6.26534,1.0541,0.150024
6.22267,1.3033,0.167212
6.22196,1.30745,0.167498
6.22125,1.3116,0.167782
6.2184,1.32821,0.168928
6.2177,1.33236,0.169214
6.21698,1.33651,0.1695
6.21627,1.34066,0.169786
6.21556,1.34482,0.170073
6.21485,1.34897,0.170361
6.21414,1.35312,0.170645
6.21343,1.35727,0.170935
6.21272,1.36142,0.171219
6.21201,1.36557,0.171501
6.21129,1.36973,0.171789
6.21058,1.37388,0.172077
6.20987,1.37803,0.172365
6.20916,1.38218,0.172651
6.20845,1.38633,0.172935
6.20774,1.39048,0.173222
6.19708,1.45275,0.177517
6.19637,1.4569,0.177803
6.19566,1.46105,0.178089
6.19495,1.4652,0.178375
6.19424,1.46935,0.178661
6.19352,1.4735,0.178949
6.19281,1.47765,0.179234
6.1921,1.4818,0.17952
6.19139,1.48596,0.179808
6.19068,1.49011,0.180094
6.18997,1.49426,0.18038
6.18926,1.49841,0.180664
6.18855,1.50256,0.18095
6.18784,1.50671,0.181238
6.18713,1.51086,0.181524
6.18642,1.51501,0.18181
6.18571,1.51916,0.182095
6.185,1.52331,0.182384
6.18428,1.52746,0.182671
5.33453,6.48974,0.524897
4.66732,6.99307,1.16649
4.66668,6.99708,1.16672
4.18656,7.59429,1.60257
4.18594,7.59822,1.6028
4.18531,7.60215,1.60302
4.18468,7.60608,1.60324
3.68786,10.7184,1.78013
3.68724,10.7223,1.78036
3.68661,10.7263,1.78058
3.68599,10.7302,1.7808
3.68536,10.7341,1.78102
3.68474,10.738,1.78125
5.82737,-0.228724,0.74246
5.43494,-0.220555,1.15157
4.9625,-0.157494,1.63824
4.96189,-0.153615,1.63845
4.96127,-0.149737,1.63867
4.96066,-0.145858,1.63888
4.83377,0.656688,1.68322
4.83316,0.660564,1.68343
4.83255,0.664439,1.68365
4.83194,0.668314,1.68386
4.83132,0.67219,1.68408
5.26534,0.841886,1.21196
5.65237,0.861639,0.805422
6.28993,0.916909,0.133228
6.18466,1.53165,0.175629
6.18395,1.5358,0.175915
6.18324,1.53995,0.176199
6.18253,1.5441,0.176487
6.18182,1.54825,0.176771
6.18111,1.5524,0.177055
6.1804,1.55655,0.177345
6.17969,1.5607,0.177631
6.17898,1.56485,0.177917
6.17826,1.569,0.178204
6.17756,1.57315,0.178488
6.17685,1.5773,0.178774
6.17613,1.58145,0.179062
5.33615,6.48662,0.517391
4.66942,6.98613,1.15908
4.66878,6.99014,1.15931
4.18916,7.58366,1.59515
4.18853,7.5876,1.59538
4.1879,7.59153,1.5956
3.68473,10.7437,1.77477
3.6841,10.7476,1.77499
3.68348,10.7515,1.77521
3.68285,10.7554,1.77543
3.68223,10.7594,1.77566
3.6816,10.7633,1.77588
3.68097,10.7672,1.7761
3.68035,10.7711,1.77632
3.67972,10.775,1.77655
3.6791,10.7789,1.77677
3.67847,10.7829,1.77699
3.67785,10.7868,1.77722
3.67722,10.7907,1.77744
3.6766,10.7946,1.77766
3.67597,10.7985,1.77788
4.96458,-0.165524,1.63118
4.96396,-0.161645,1.63139
4.83154,0.675947,1.67767
4.83093,0.679823,1.67788
4.83031,0.683699,1.67809
4.8297,0.687576,1.67831
6.29033,0.920984,0.126165
6.17651,1.58565,0.172018
6.1758,1.5898,0.172302
6.17509,1.59396,0.172592
6.17438,1.59811,0.172876
6.17367,1.60226,0.173161
6.17295,1.60641,0.17345
6.17225,1.61056,0.173737
6.17153,1.61471,0.174023
6.17082,1.61886,0.174309
6.17011,1.62301,0.174593
6.16514,1.65207,0.1766
6.16442,1.65622,0.176888
6.16372,1.66037,0.177174
6.163,1.66452,0.17746
6.16229,1.66867,0.177746
6.16158,1.67282,0.17803
6.16087,1.67697,0.17832
6.16016,1.68112,0.178602
6.15945,1.68527,0.17889
6.15874,1.68942,0.179176
6.15803,1.69357,0.179462
6.15732,1.69772,0.179749
6.15661,1.70187,0.180037
6.1559,1.70602,0.180319
6.15519,1.71017,0.180609
6.15448,1.71432,0.180893
6.15376,1.71847,0.181181
6.15305,1.72262,0.181469
6.15234,1.72677,0.181751
6.15163,1.73092,0.182039
6.15092,1.73507,0.182325
6.15021,1.73922,0.182613
6.1495,1.74337,0.182898
6.14879,1.74752,0.183184
6.14808,1.75167,0.18347
6.14737,1.75582,0.183756
6.14666,1.75997,0.184046
6.14595,1.76412,0.18433
6.14524,1.76827,0.184616
6.14453,1.77242,0.184902
5.33778,6.48351,0.509876
4.67151,6.97919,1.15166
4.67087,6.9832,1.15189
4.19238,7.5691,1.58751
4.19176,7.57303,1.58773
4.19113,7.57697,1.58795
4.1905,7.5809,1.58818
3.67596,10.8042,1.7714
3.67534,10.8081,1.77162
3.67471,10.8121,1.77185
3.67408,10.816,1.77207
3.67346,10.8199,1.77229
3.67283,10.8238,1.77251
3.67221,10.8277,1.77274
3.67158,10.8317,1.77296
3.67096,10.8356,1.77318
6.49534,-0.269761,0.0366821
5.83009,-0.233359,0.728094
5.43747,-0.225103,1.13761
4.96666,-0.173558,1.62411
4.96604,-0.169678,1.62433
4.82991,0.691336,1.6719
4.8293,0.695213,1.67212
4.82869,0.69909,1.67233
4.82808,0.702966,1.67254
5.26654,0.845669,1.19848
5.65373,0.8655,0.791555
6.29073,0.92506,0.119106
6.26937,1.04978,0.127712
6.17049,1.62722,0.167551
6.16978,1.63137,0.167835
6.16907,1.63552,0.168123
6.16836,1.63967,0.168407
6.16764,1.64383,0.168695
6.16693,1.64798,0.168982
6.1449,1.77666,0.177856
6.14419,1.78081,0.178144
6.14348,1.78496,0.178431
6.14277,1.78911,0.178717
6.14206,1.79326,0.179003
6.14134,1.79741,0.179291
6.14063,1.80156,0.179577
6.13992,1.80571,0.179863
5.3394,6.48039,0.502367
4.67297,6.97626,1.14447
4.19498,7.55847,1.58008
4.19435,7.5624,1.58031
4.19373,7.56633,1.58053
3.67095,10.8413,1.7667
3.67032,10.8452,1.76692
3.6697,10.8491,1.76714
3.66907,10.853,1.76736
3.66844,10.857,1.76759
5.83178,-0.2377,0.720791
4.96873,-0.181594,1.61705
4.96812,-0.177713,1.61726
4.82829,0.706731,1.66613
4.82768,0.710608,1.66634
4.82706,0.714486,1.66656
4.82645,0.718363,1.66677
5.26683,0.849544,1.19185
5.65409,0.869451,0.784733
6.29113,0.929138,0.112043
6.14029,1.80995,0.172819
6.13958,1.8141,0.173103
6.13887,1.81825,0.173393
6.13816,1.8224,0.173676
6.13745,1.82655,0.173962
6.13674,1.8307,0.174252
5.34173,6.47317,0.494568
5.34103,6.47728,0.49485
4.67507,6.96932,1.13704
4.67443,6.97333,1.13727
4.19758,7.54783,1.57265
4.19695,7.55176,1.57287
4.19632,7.5557,1.5731
3.66843,10.8627,1.7611
3.66781,10.8666,1.76132
3.66718,10.8705,1.76155
3.66656,10.8744,1.76177
3.66593,10.8783,1.76199
3.6653,10.8823,1.76221
3.66468,10.8862,1.76244
3.66405,10.8901,1.76266
3.66343,10.894,1.76288
3.6628,10.8979,1.76311
3.66217,10.9019,1.76333
3.66155,10.9058,1.76355
5.83347,-0.242043,0.713484
5.44001,-0.229654,1.12365
4.97143,-0.193515,1.60976
4.97082,-0.189634,1.60998
4.9702,-0.185752,1.61019
4.82666,0.72213,1.66036
4.82605,0.726009,1.66057
5.26712,0.85342,1.18522
5.65444,0.873403,0.777912
6.13711,1.83495,0.167202
6.1364,1.8391,0.16749
6.13569,1.84326,0.167774
6.13498,1.84741,0.168064
6.13427,1.85156,0.168348
6.13355,1.85571,0.168634
6.13284,1.85986,0.168924
6.13213,1.86401,0.169209
6.13142,1.86816,0.169495
6.13071,1.87231,0.169781
6.13,1.87647,0.170067
6.12929,1.88062,0.170355
6.12858,1.88477,0.170639
6.12787,1.88892,0.170925
6.12716,1.89307,0.171213
6.12645,1.89722,0.171497
6.12573,1.90137,0.171787
5.34336,6.47005,0.487047
4.67717,6.96237,1.12962
4.67653,6.96638,1.12984
4.20018,7.53719,1.56522
4.19955,7.54112,1.56544
4.19892,7.54506,1.56567
3.66154,10.9115,1.75706
3.66091,10.9154,1.75729
3.66029,10.9193,1.75751
3.65966,10.9232,1.75773
3.65903,10.9272,1.75795
3.65841,10.9311,1.75818
3.65778,10.935,1.7584
3.65716,10.9389,1.75862
3.65653,10.9428,1.75884
3.65591,10.9468,1.75907
5.83515,-0.246387,0.706171
5.4416,-0.233916,1.11654
4.97412,-0.205441,1.60248
4.97351,-0.201558,1.60269
4.9729,-0.197676,1.60291
4.82626,0.729778,1.65416
4.82565,0.733657,1.65437
4.82504,0.737536,1.65459
5.2674,0.857298,1.17859
5.65479,0.877356,0.771088
6.29264,0.933139,0.0976238
6.1261,1.90563,0.164736
6.12539,1.90978,0.165024
6.12468,1.91394,0.16531
6.12397,1.91809,0.1656
6.12326,1.92224,0.165884
6.12255,1.92639,0.166172
6.12183,1.93054,0.166458
6.12113,1.93469,0.166742
6.12041,1.93884,0.16703
6.1197,1.943,0.167316
6.11899,1.94715,0.167601
6.11828,1.9513,0.167889
6.11757,1.95545,0.168175
6.11686,1.9596,0.168463
6.11615,1.96375,0.168751
6.11544,1.9679,0.169035
6.11473,1.97205,0.169321
6.11402,1.97621,0.169607
6.1133,1.98036,0.169897
6.11259,1.98451,0.170179
6.11188,1.98866,0.170467
6.11117,1.99281,0.170755
6.11046,1.99696,0.171038
6.10975,2.00111,0.171328
6.10904,2.00526,0.171614
6.10833,2.00941,0.171902
5.34498,6.46693,0.479525
4.67863,6.95943,1.12241
4.20278,7.52654,1.55779
4.20215,7.53048,1.55801
4.20153,7.53441,1.55823
3.65589,10.9525,1.75258
3.65527,10.9564,1.7528
3.65464,10.9603,1.75302
3.65401,10.9643,1.75325
3.65339,10.9682,1.75347
3.65276,10.9721,1.75369
4.97621,-0.213488,1.5954
4.97559,-0.209604,1.59562
4.82525,0.741308,1.64816
4.82464,0.745188,1.64838
4.82402,0.749067,1.6486
5.65515,0.881311,0.764256
6.29304,0.937221,0.0905533
6.10869,2.01369,0.164852
6.10798,2.01785,0.165136
6.10727,2.022,0.165426
6.10656,2.02615,0.16571
6.10585,2.0303,0.165998
6.10514,2.03445,0.166285
6.10443,2.0386,0.166571
6.10372,2.04275,0.166857
6.10301,2.04691,0.167141
6.10229,2.05106,0.167431
6.10158,2.05521,0.167715
5.34661,6.46381,0.471998
4.68074,6.95248,1.11498
4.68009,6.95649,1.11521
4.20475,7.51982,1.55057
4.20413,7.52376,1.55079
3.65275,10.9778,1.7472
3.65212,10.9817,1.74742
3.6515,10.9857,1.74764
3.65087,10.9896,1.74787
3.65024,10.9935,1.74809
6.50182,-0.275501,-0.000514984
5.83788,-0.251034,0.691778
5.44413,-0.238472,1.10256
4.9789,-0.225421,1.58811
4.97829,-0.221538,1.58832
4.97768,-0.217654,1.58854
4.82424,0.752842,1.64218
4.82362,0.756722,1.64239
4.82301,0.760603,1.6426
5.26861,0.861091,1.16508
6.29344,0.941305,0.0834789
6.10195,2.0595,0.160666
6.10124,2.06365,0.160954
6.10053,2.0678,0.161236
6.09981,2.07195,0.161526
5.34824,6.46069,0.464472
4.68348,6.94152,1.10732
4.68284,6.94553,1.10755
4.68219,6.94954,1.10778
4.20673,7.51311,1.54335
4.2061,7.51705,1.54358
3.65023,10.9992,1.7416
3.6496,11.0032,1.74182
5.83957,-0.255382,0.684462
4.98099,-0.233475,1.58103
4.98038,-0.229591,1.58124
4.82323,0.764381,1.63618
4.82261,0.768261,1.63639
4.822,0.772142,1.63661
5.26889,0.864972,1.15844
5.65651,0.885184,0.750359
6.29384,0.94539,0.0764027
6.27673,1.04528,0.0832977
6.10018,2.07625,0.15447
6.09946,2.0804,0.154758
6.09876,2.08455,0.155045
6.09804,2.08871,0.155333
5.35057,6.45345,0.456654
5.34986,6.45757,0.456942
4.68623,6.93055,1.09964
4.68559,6.93456,1.09987
4.68494,6.93857,1.10011
4.2087,7.50639,1.53614
4.20808,7.51033,1.53636
3.59162,8.55418,2.06671
3.59101,8.55803,2.06693
3.58858,8.57344,2.06778
3.64959,11.0089,1.73532
5.84126,-0.259732,0.677137
4.98307,-0.241532,1.57395
5.44667,-0.243033,1.08856
4.82221,0.775923,1.63018
4.8216,0.779804,1.6304
4.82098,0.783686,1.63061
5.26918,0.868854,1.1518
5.65687,0.889143,0.743523
6.29424,0.949477,0.0693207
6.29353,0.95364,0.0696087
6.09841,2.09301,0.148275
6.0977,2.09716,0.148561
6.09698,2.10131,0.148849
6.09627,2.10547,0.149136
6.09556,2.10962,0.149426
6.09272,2.12623,0.15057
6.092,2.13038,0.150858
6.08916,2.147,0.152004
6.08774,2.1553,0.152578
6.08702,2.15945,0.152864
6.08631,2.16361,0.153152
6.08561,2.16776,0.153437
6.08489,2.17191,0.153725
6.08418,2.17606,0.154011
6.08347,2.18022,0.154299
6.08276,2.18437,0.154585
6.08205,2.18852,0.154869
6.08134,2.19267,0.155157
6.08063,2.19683,0.155445
6.07991,2.20098,0.155733
6.0792,2.20513,0.156017
6.07849,2.20928,0.156307
6.07778,2.21344,0.15659
6.07707,2.21759,0.156878
6.07636,2.22174,0.157166
5.3522,6.45033,0.44912
4.68833,6.92358,1.0922
4.68769,6.9276,1.09243
4.21068,7.49967,1.52891
4.21005,7.50361,1.52914
3.5977,8.52085,2.05826
3.59709,8.5247,2.05847
3.59648,8.52855,2.05869
3.59587,8.5324,2.0589
3.59526,8.53625,2.05911
3.59465,8.5401,2.05932
3.59404,8.54395,2.05954
3.59344,8.54781,2.05975
3.59283,8.55166,2.05996
3.591,8.56321,2.0606
3.59039,8.56707,2.06082
3.58978,8.57092,2.06103
3.58856,8.57862,2.06145
3.58795,8.58247,2.06167
3.58735,8.58632,2.06188
3.58674,8.59018,2.06209
3.58613,8.59403,2.06231
3.58552,8.59788,2.06252
3.58491,8.60173,2.06273
3.5843,8.60558,2.06294
3.64958,11.0146,1.72882
3.64895,11.0185,1.72904
3.64832,11.0225,1.72927
4.98516,-0.249592,1.56686
4.98454,-0.245706,1.56708
5.44826,-0.247301,1.08145
4.82119,0.787469,1.62418
4.82058,0.791351,1.6244
4.81997,0.795234,1.62461
5.26947,0.872738,1.14515
5.65722,0.893103,0.736683
6.29393,0.957729,0.0625286
6.09592,2.11392,0.142366
6.09521,2.11808,0.142651
6.0945,2.12223,0.142939
6.09237,2.13469,0.143799
6.09165,2.13885,0.144089
6.09094,2.143,0.144373
6.08952,2.15131,0.144945
6.07672,2.22606,0.15011
6.07601,2.23022,0.150396
6.07529,2.23437,0.150682
6.07459,2.23852,0.150967
6.07387,2.24268,0.151257
6.07316,2.24683,0.151541
6.07245,2.25098,0.151831
6.07174,2.25513,0.152115
6.07103,2.25929,0.152403
5.35383,6.4472,0.441584
4.69109,6.91261,1.08452
4.69044,6.91662,1.08476
4.6898,6.92064,1.08499
4.21266,7.49295,1.52169
4.21203,7.49689,1.52192
3.60134,8.5029,2.05066
3.60073,8.50676,2.05087
3.60012,8.51061,2.05108
3.59952,8.51446,2.05129
3.59891,8.51831,2.05151
3.58429,8.61077,2.05662
3.58368,8.61462,2.05684
3.58307,8.61848,2.05705
3.58246,8.62233,2.05726
3.58185,8.62618,2.05747
3.58124,8.63003,2.05768
3.58063,8.63388,2.0579
3.58002,8.63774,2.05811
3.57942,8.64159,2.05832
3.57881,8.64544,2.05854
3.5782,8.64929,2.05875
3.57759,8.65315,2.05896
3.57698,8.657,2.05918
3.57637,8.66085,2.05939
3.57576,8.6647,2.0596
3.57515,8.66855,2.05981
3.57454,8.67241,2.06003
3.57393,8.67626,2.06024
3.54409,8.86499,2.07067
3.54349,8.86884,2.07088
3.54288,8.87269,2.0711
3.54227,8.87654,2.07131
3.54166,8.8804,2.07152
3.54105,8.88425,2.07174
3.54044,8.8881,2.07195
3.53983,8.89195,2.07216
3.53922,8.8958,2.07238
3.53861,8.89965,2.07259
3.538,8.9035,2.0728
3.5374,8.90735,2.07301
3.64831,11.0282,1.72276
3.64768,11.0321,1.72299
3.64705,11.0361,1.72321
3.64643,11.04,1.72343
3.63014,11.142,1.72924
3.62951,11.1459,1.72946
3.62889,11.1499,1.72968
3.62826,11.1538,1.72991
3.62764,11.1577,1.73013
3.62701,11.1616,1.73035
3.62638,11.1656,1.73058
3.62576,11.1695,1.7308
3.62513,11.1734,1.73102
3.6245,11.1773,1.73125
3.62388,11.1813,1.73147
3.62325,11.1852,1.73169
3.62262,11.1891,1.73192
3.622,11.193,1.73214
3.62137,11.197,1.73236
4.98725,-0.257655,1.55977
5.844,-0.264388,0.662722
5.44986,-0.251571,1.07433
4.82018,0.79902,1.61818
4.81956,0.802903,1.6184
5.26975,0.876624,1.1385
5.65758,0.897065,0.729841
6.29433,0.961819,0.0554447
6.07138,2.26362,0.145346
6.07067,2.26777,0.14563
6.06996,2.27193,0.14592
6.06925,2.27608,0.146206
6.06854,2.28023,0.146492
6.06783,2.28439,0.146778
6.06712,2.28854,0.147066
6.06641,2.29269,0.147354
5.35546,6.44407,0.434042
4.69384,6.90162,1.07684
4.69319,6.90564,1.07707
4.69255,6.90966,1.07731
4.21463,7.48622,1.51446
4.214,7.49016,1.51469
3.60499,8.48495,2.04305
3.60438,8.48881,2.04326
3.60377,8.49266,2.04348
3.60316,8.49651,2.04369
3.60255,8.50037,2.0439
3.57392,8.68146,2.05392
3.57331,8.68531,2.05413
3.5727,8.68917,2.05434
3.57209,8.69302,2.05455
3.57148,8.69687,2.05477
3.57088,8.70073,2.05498
3.57026,8.70458,2.05519
3.56966,8.70843,2.0554
3.56905,8.71228,2.05562
3.56844,8.71614,2.05583
3.56783,8.71999,2.05604
3.56722,8.72384,2.05626
3.56661,8.72769,2.05647
3.566,8.73155,2.05668
3.56539,8.7354,2.05689
3.56478,8.73925,2.05711
3.56417,8.7431,2.05732
3.56356,8.74696,2.05754
3.56296,8.75081,2.05775
3.56235,8.75466,2.05796
3.56174,8.75851,2.05817
3.56113,8.76237,2.05839
3.56052,8.76622,2.0586
3.55991,8.77007,2.05881
3.5593,8.77392,2.05902
3.55869,8.77777,2.05924
3.55808,8.78163,2.05945
3.55747,8.78548,2.05967
3.55686,8.78933,2.05988
3.55626,8.79318,2.06009
3.55565,8.79704,2.0603
3.55504,8.80089,2.06052
3.55443,8.80474,2.06073
3.55382,8.80859,2.06094
3.55321,8.81245,2.06116
3.5526,8.8163,2.06137
3.55078,8.82786,2.062
3.55016,8.83171,2.06222
3.54955,8.83556,2.06243
3.54895,8.83941,2.06265
3.54834,8.84326,2.06286
3.54773,8.84712,2.06307
3.54712,8.85097,2.06328
3.54651,8.85482,2.0635
3.5459,8.85867,2.06371
3.54529,8.86252,2.06392
3.53738,8.9126,2.06669
3.53677,8.91645,2.0669
3.53616,8.9203,2.06712
3.53555,8.92416,2.06733
3.64641,11.0457,1.71693
3.64579,11.0496,1.71715
3.64516,11.0536,1.71737
3.64454,11.0575,1.7176
3.64391,11.0614,1.71782
3.64328,11.0653,1.71805
3.64265,11.0693,1.71827
3.64203,11.0732,1.71849
3.6414,11.0771,1.71872
3.64077,11.081,1.71894
3.64015,11.085,1.71916
3.63952,11.0889,1.71939
3.63889,11.0928,1.71961
3.63827,11.0968,1.71983
3.63764,11.1007,1.72006
3.63702,11.1046,1.72028
3.63639,11.1085,1.7205
3.63576,11.1125,1.72073
3.63514,11.1164,1.72095
3.63451,11.1203,1.72117
3.63388,11.1242,1.7214
3.63326,11.1282,1.72162
3.63263,11.1321,1.72184
3.632,11.136,1.72207
3.63138,11.1399,1.72229
3.62135,11.2027,1.72586
3.62073,11.2066,1.72608
3.6201,11.2106,1.72631
3.61947,11.2145,1.72653
3.61884,11.2184,1.72676
3.61822,11.2223,1.72698
3.61759,11.2263,1.7272
3.61696,11.2302,1.72742
4.98933,-0.26572,1.55268
4.98872,-0.261833,1.5529
4.81978,0.806691,1.61197
4.81916,0.810574,1.61218
5.27004,0.880511,1.13185
5.65794,0.901028,0.722998
6.29473,0.965912,0.0483551
6.06676,2.29703,0.140291
6.06605,2.30118,0.140579
6.06534,2.30534,0.140867
6.06463,2.30949,0.141153
6.06392,2.31365,0.141439
6.06321,2.3178,0.141724
6.06249,2.32195,0.142015
6.06178,2.32611,0.142302
6.06107,2.33026,0.14259
6.06036,2.33441,0.142874
6.05965,2.33857,0.143162
5.35779,6.43683,0.426214
5.35709,6.44094,0.4265
4.69595,6.89465,1.06939
4.6953,6.89867,1.06963
4.21724,7.47555,1.50701
4.21661,7.47949,1.50723
4.21598,7.48343,1.50746
3.60803,8.47085,2.03566
3.60742,8.47471,2.03587
3.60681,8.47856,2.03608
3.6062,8.48242,2.03629
3.55258,8.82153,2.05504
3.55197,8.82538,2.05526
3.53552,8.9294,2.06101
3.53492,8.93326,2.06122
3.53431,8.93711,2.06143
3.5337,8.94096,2.06165
3.53309,8.94481,2.06186
3.53248,8.94866,2.06207
3.61694,11.236,1.72092
3.61632,11.2399,1.72114
4.99081,-0.269901,1.5458
5.84673,-0.269047,0.648294
5.4524,-0.25614,1.06032
4.81938,0.814365,1.60575
4.81876,0.818249,1.60596
5.27033,0.8844,1.1252
5.65829,0.904992,0.716152
6.29513,0.970005,0.0412674
6.29442,0.974172,0.0415535
6.06001,2.34292,0.136099
6.0593,2.34707,0.136387
6.05858,2.35122,0.136677
6.05787,2.35538,0.136961
6.05716,2.35953,0.137247
6.05645,2.36369,0.137537
6.05574,2.36784,0.137819
6.05503,2.372,0.138109
6.05432,2.37615,0.138395
6.0536,2.3803,0.138681
6.02658,2.53813,0.149584
6.02586,2.54228,0.14987
6.02515,2.54643,0.150156
6.02444,2.55059,0.150444
6.02373,2.55474,0.150732
6.02302,2.55889,0.151016
6.02231,2.56304,0.151306
6.0216,2.5672,0.15159
5.35942,6.4337,0.418669
4.69805,6.88768,1.06194
4.69741,6.8917,1.06217
4.22048,7.46093,1.49933
4.21985,7.46487,1.49955
4.21922,7.46882,1.49977
4.21859,7.47276,1.5
3.61046,8.4606,2.02847
3.60985,8.46446,2.02868
3.60924,8.46831,2.0289
3.53246,8.95392,2.05574
3.53185,8.95777,2.05596
3.53124,8.96163,2.05617
3.6163,11.2457,1.71463
3.61567,11.2496,1.71486
3.61505,11.2535,1.71508
4.99228,-0.274083,1.53892
5.45399,-0.260414,1.05319
4.81898,0.822042,1.59953
6.29482,0.978268,0.0344601
6.2941,0.982435,0.03475
6.05396,2.38466,0.131618
6.05325,2.38882,0.131905
6.05253,2.39297,0.132195
6.05182,2.39713,0.132481
6.05111,2.40128,0.132767
6.0504,2.40543,0.133055
6.04969,2.40959,0.133343
6.03261,2.50929,0.140228
6.0319,2.51344,0.140516
6.03119,2.51759,0.140802
6.03048,2.52175,0.14109
6.02977,2.5259,0.141378
6.02906,2.53005,0.141663
6.02835,2.53421,0.141949
6.02194,2.57159,0.144533
6.02123,2.57574,0.144821
6.02052,2.57989,0.145107
6.01981,2.58405,0.145393
6.0191,2.5882,0.145678
6.01839,2.59235,0.145966
5.36106,6.43056,0.411121
4.69952,6.88472,1.05472
4.22372,7.44631,1.49164
4.22309,7.45025,1.49187
4.22246,7.4542,1.49209
4.22183,7.45814,1.49232
3.6135,8.44649,2.02107
3.61289,8.45035,2.02128
3.61227,8.4542,2.0215
3.61167,8.45806,2.02171
3.53122,8.96688,2.04984
3.53061,8.97073,2.05005
3.53,8.97459,2.05026
3.52939,8.97844,2.05048
3.52878,8.9823,2.05069
3.52817,8.98615,2.05091
3.52756,8.99,2.05112
3.52695,8.99386,2.05133
3.52634,8.99771,2.05154
3.52573,9.00156,2.05176
3.52513,9.00542,2.05197
3.52452,9.00927,2.05218
3.52391,9.01312,2.0524
3.5233,9.01698,2.05261
3.52269,9.02083,2.05282
3.52208,9.02468,2.05304
3.52147,9.02854,2.05325
3.52086,9.03239,2.05346
3.52025,9.03625,2.05368
3.51964,9.0401,2.05389
3.51903,9.04395,2.0541
3.61502,11.2593,1.70857
3.6144,11.2632,1.70879
3.46466,12.2012,1.76216
3.46404,12.2051,1.76238
3.46341,12.2091,1.76261
4.99375,-0.278267,1.53204
5.84947,-0.27371,0.633854
5.45558,-0.26469,1.04606
4.81919,0.825836,1.59308
4.81857,0.829721,1.5933
5.27153,0.888208,1.11166
5.65966,0.908879,0.702219
6.2945,0.986533,0.0276546
6.05004,2.41395,0.126278
6.04933,2.41811,0.126562
6.04862,2.42226,0.12685
6.0479,2.42642,0.127138
6.0472,2.43057,0.127422
6.04648,2.43473,0.12771
6.04577,2.43888,0.127998
6.04506,2.44304,0.128286
6.04435,2.44719,0.128572
6.04221,2.45966,0.129433
6.0415,2.46381,0.129721
6.04079,2.46797,0.130007
6.04008,2.47212,0.130293
6.03937,2.47628,0.130581
6.03866,2.48043,0.130869
6.03794,2.48459,0.131157
6.03723,2.48874,0.131441
6.03652,2.4929,0.131731
6.03581,2.49705,0.132017
6.0351,2.50121,0.132301
6.03439,2.50536,0.132593
6.01874,2.59675,0.138903
6.01802,2.6009,0.139193
6.01731,2.60506,0.139481
6.0166,2.60921,0.139765
6.01589,2.61336,0.140055
6.01518,2.61752,0.140339
5.36339,6.42331,0.403286
5.36269,6.42743,0.403566
4.70163,6.87775,1.04725
4.70098,6.88176,1.04749
4.22633,7.43562,1.48418
4.2257,7.43957,1.4844
4.22507,7.44351,1.48463
3.61654,8.43237,2.01366
3.61593,8.43623,2.01388
3.61532,8.44009,2.01409
3.61471,8.44394,2.0143
3.51901,9.04923,2.04777
3.5184,9.05308,2.04798
3.51779,9.05693,2.0482
3.51718,9.06079,2.04841
3.51657,9.06464,2.04862
3.51596,9.0685,2.04884
3.51535,9.07235,2.04905
3.51474,9.0762,2.04926
3.51413,9.08006,2.04947
3.61438,11.269,1.70228
3.61375,11.273,1.70251
3.61312,11.2769,1.70273
3.6125,11.2808,1.70296
3.61187,11.2847,1.70318
3.47088,12.1679,1.75343
3.47025,12.1719,1.75365
3.46963,12.1758,1.75387
3.469,12.1797,1.7541
3.46837,12.1836,1.75432
3.46775,12.1875,1.75454
3.46712,12.1915,1.75477
3.4665,12.1954,1.75499
3.46587,12.1993,1.75521
4.99523,-0.282452,1.52515
5.85116,-0.278069,0.626516
5.45717,-0.268968,1.03893
4.81879,0.833517,1.58686
5.27182,0.8921,1.10499
5.66002,0.912848,0.69536
6.2949,0.990633,0.0205574
6.29419,0.994802,0.0208454
6.0447,2.45157,0.121506
6.04399,2.45572,0.121792
6.01553,2.62192,0.133276
6.01481,2.62607,0.133564
6.0141,2.63023,0.133848
6.01339,2.63438,0.134136
6.01268,2.63854,0.134422
6.01197,2.64269,0.13471
5.99632,2.73407,0.141027
5.99561,2.73823,0.141314
5.99489,2.74238,0.1416
5.99418,2.74653,0.141884
5.99347,2.75069,0.142172
5.99276,2.75484,0.142462
5.99205,2.75899,0.142744
5.99134,2.76314,0.143036
5.99063,2.7673,0.143322
5.98992,2.77145,0.143606
5.36573,6.41605,0.395445
5.36503,6.42018,0.395729
4.70374,6.87077,1.03979
4.7031,6.87478,1.04002
4.23272,7.40127,1.47536
4.23209,7.40521,1.47559
4.23146,7.40915,1.47581
4.23083,7.4131,1.47604
4.2302,7.41704,1.47626
4.22957,7.42099,1.47649
4.22894,7.42493,1.47671
4.22831,7.42888,1.47694
4.22768,7.43282,1.47716
3.6208,8.41054,2.00583
3.62019,8.41439,2.00604
3.61958,8.41825,2.00625
3.61897,8.42211,2.00647
3.61836,8.42597,2.00668
3.61775,8.42982,2.0069
3.51411,9.08534,2.04314
3.5135,9.08919,2.04336
3.51289,9.09305,2.04357
3.51228,9.0969,2.04378
3.51167,9.10076,2.04399
3.51106,9.10461,2.04421
3.51045,9.10847,2.04442
3.50984,9.11232,2.04464
3.50923,9.11618,2.04485
3.61185,11.2905,1.69666
3.61122,11.2945,1.69689
3.61059,11.2984,1.69711
3.60997,11.3023,1.69733
3.47772,12.1307,1.74447
3.4771,12.1346,1.74469
3.47647,12.1386,1.74492
3.47584,12.1425,1.74514
3.47522,12.1464,1.74536
3.47459,12.1503,1.74559
3.47396,12.1543,1.74581
3.47334,12.1582,1.74603
3.47271,12.1621,1.74626
3.47208,12.166,1.74648
4.9967,-0.286639,1.51826
5.85286,-0.282431,0.619171
5.45877,-0.273247,1.0318
4.819,0.837315,1.58041
4.81838,0.841202,1.58063
5.27211,0.895993,1.09833
5.66037,0.916818,0.688507
6.29459,0.998904,0.0137424
6.01231,2.6471,0.127644
6.0116,2.65126,0.12793
6.01089,2.65541,0.12822
6.01018,2.65956,0.128504
6.00947,2.66372,0.128794
6.00876,2.66787,0.129082
6.00805,2.67203,0.129366
6.00733,2.67618,0.129654
6.00662,2.68034,0.12994
6.00591,2.68449,0.130228
6.0052,2.68865,0.130516
6.00449,2.6928,0.1308
6.00377,2.69696,0.131092
6.00307,2.70111,0.131376
6.00235,2.70526,0.131664
6.00164,2.70942,0.13195
6.00093,2.71357,0.132238
6.00022,2.71773,0.132526
5.99951,2.72188,0.132812
5.99879,2.72604,0.133101
5.99809,2.73019,0.133385
5.99026,2.77588,0.136545
5.98955,2.78004,0.136829
5.98883,2.78419,0.137119
5.98812,2.78834,0.137405
5.98741,2.7925,0.137693
5.9867,2.79665,0.13798
5.98599,2.8008,0.138266
5.98528,2.80496,0.138552
5.36807,6.40879,0.3876
5.36737,6.41292,0.387882
4.70585,6.86378,1.03233
4.70521,6.8678,1.03256
4.23722,7.37873,1.46722
4.23659,7.38268,1.46745
4.23596,7.38662,1.46767
4.23533,7.39057,1.4679
4.2347,7.39451,1.46812
4.23407,7.39846,1.46834
3.62506,8.38869,1.99799
3.62445,8.39255,1.99821
3.62384,8.39641,1.99842
3.62323,8.40026,1.99863
3.62262,8.40412,1.99885
3.62201,8.40798,1.99906
3.50921,9.12146,2.03851
3.5086,9.12532,2.03873
3.50799,9.12918,2.03894
3.50738,9.13303,2.03915
3.50616,9.14074,2.03958
3.50555,9.1446,2.03979
3.60995,11.3081,1.69082
3.60932,11.312,1.69104
3.60869,11.316,1.69127
3.60806,11.3199,1.69149
3.60744,11.3238,1.69171
3.60681,11.3277,1.69194
3.60367,11.3474,1.69305
3.60305,11.3513,1.69328
3.60242,11.3552,1.6935
3.48144,12.1131,1.73663
3.48081,12.117,1.73685
3.48018,12.121,1.73707
3.47956,12.1249,1.73729
3.47893,12.1288,1.73752
4.99818,-0.290827,1.51137
5.85456,-0.286794,0.611824
5.46036,-0.277528,1.02466
4.8186,0.845001,1.57418
4.81798,0.848889,1.5744
5.2724,0.899888,1.09167
5.66073,0.920789,0.681644
6.29499,1.00301,0.00664139
5.98562,2.8094,0.131487
5.98491,2.81355,0.131775
5.9842,2.81771,0.132063
5.98349,2.82186,0.132347
5.98277,2.82601,0.132637
5.98206,2.83017,0.132923
5.98135,2.83432,0.133211
5.98064,2.83848,0.133495
5.37042,6.40153,0.379753
5.36971,6.40566,0.380037
4.70732,6.86082,1.02509
4.2411,7.36013,1.4593
4.24047,7.36408,1.45953
4.23984,7.36802,1.45975
4.23921,7.37197,1.45997
4.23858,7.37592,1.4602
3.62811,8.37456,1.99058
3.6275,8.37841,1.99079
3.62689,8.38227,1.99101
3.62628,8.38613,1.99122
3.50735,9.13832,2.03282
3.50552,9.14989,2.03346
3.50491,9.15374,2.03367
3.5043,9.1576,2.03388
3.50369,9.16146,2.0341
3.50308,9.16531,2.03431
3.50003,9.18459,2.03538
3.60679,11.3335,1.68542
3.60616,11.3375,1.68564
3.60553,11.3414,1.68586
3.60491,11.3453,1.68609
3.6024,11.3611,1.68698
3.60177,11.365,1.68721
3.60114,11.3689,1.68743
3.48515,12.0955,1.72878
3.48453,12.0994,1.729
3.4839,12.1034,1.72923
3.48327,12.1073,1.72945
3.48264,12.1112,1.72967
4.99965,-0.295017,1.50448
5.85625,-0.291158,0.604475
4.81819,0.85269,1.56795
5.27269,0.903785,1.085
5.66109,0.924762,0.674784
6.29539,1.00711,-0.000463486
6.29468,1.01128,-0.000177383
6.28968,1.04048,0.00184059
5.98098,2.84292,0.126429
5.98027,2.84708,0.126717
5.97956,2.85123,0.127003
5.97885,2.85539,0.127291
5.97814,2.85954,0.127577
5.9632,2.94678,0.133606
5.96248,2.95093,0.133894
5.96177,2.95509,0.134182
5.96106,2.95924,0.13447
5.96035,2.9634,0.134758
5.95964,2.96755,0.135042
5.95893,2.9717,0.135328
5.95821,2.97586,0.135616
5.9575,2.98001,0.135904
5.95679,2.98416,0.136192
5.95608,2.98832,0.13648
5.95537,2.99247,0.136766
5.37276,6.39427,0.371902
5.37205,6.39839,0.372189
4.70879,6.85785,1.01785
4.24497,7.34153,1.45138
4.24434,7.34548,1.4516
4.24371,7.34942,1.45182
4.24308,7.35337,1.45205
4.24245,7.35732,1.45227
3.63787,8.31796,1.98082
3.63726,8.32182,1.98103
3.63665,8.32568,1.98124
3.63604,8.32954,1.98145
3.63543,8.3334,1.98167
3.63482,8.33726,1.98188
3.63421,8.34112,1.9821
3.6336,8.34498,1.98231
3.63299,8.34883,1.98252
3.63238,8.3527,1.98274
3.63176,8.35655,1.98295
3.63116,8.36041,1.98316
3.63055,8.36427,1.98337
3.62993,8.36813,1.98359
3.62932,8.37199,1.9838
3.50306,9.17061,2.02797
3.50245,9.17447,2.02818
3.50184,9.17832,2.0284
3.50123,9.18218,2.02861
3.50001,9.18989,2.02904
3.4994,9.19375,2.02925
3.49879,9.19761,2.02946
3.49818,9.20146,2.02968
3.49757,9.20532,2.02989
3.49696,9.20917,2.03011
3.49635,9.21303,2.03032
3.60112,11.3747,1.68091
3.60049,11.3787,1.68114
3.59986,11.3826,1.68136
3.59924,11.3865,1.68158
3.59861,11.3904,1.6818
3.59798,11.3944,1.68203
3.48887,12.0779,1.72093
3.48824,12.0818,1.72115
3.48761,12.0857,1.72137
3.48699,12.0897,1.7216
3.48636,12.0936,1.72182
5.00113,-0.299209,1.49758
5.85795,-0.295524,0.597122
4.81841,0.856494,1.5615
4.81779,0.860382,1.56171
5.66145,0.928736,0.667919
6.29508,1.01539,-0.00728798
6.29436,1.01956,-0.00699615
6.29365,1.02373,-0.00671005
6.29293,1.02791,-0.00641823
6.29222,1.03208,-0.00613403
6.29151,1.03625,-0.00584221
5.97848,2.86399,0.120506
5.97776,2.86815,0.120794
5.97705,2.8723,0.12108
5.97634,2.87646,0.121374
5.97563,2.88061,0.121656
5.97492,2.88477,0.121944
5.97421,2.88893,0.122229
5.97349,2.89308,0.122519
5.97278,2.89723,0.122805
5.97207,2.90139,0.123093
5.97136,2.90554,0.123381
5.97065,2.9097,0.123669
5.96994,2.91386,0.123951
5.96922,2.91801,0.124243
5.96851,2.92216,0.124527
5.9678,2.92632,0.124819
5.96709,2.93047,0.125101
5.96638,2.93463,0.125391
5.96567,2.93878,0.125677
5.96496,2.94294,0.125965
5.9557,2.99695,0.1297
5.95499,3.0011,0.129984
5.95428,3.00525,0.130274
5.95357,3.00941,0.13056
5.95286,3.01356,0.130848
5.95215,3.01772,0.131134
5.37581,6.38288,0.363764
5.3751,6.387,0.364052
5.37439,6.39112,0.364334
4.71026,6.85488,1.01061
4.24759,7.33081,1.4439
4.24696,7.33476,1.44412
4.24633,7.33871,1.44435
3.64214,8.29608,1.97297
3.64153,8.29994,1.97318
3.64091,8.3038,1.9734
3.64031,8.30766,1.97361
3.6397,8.31152,1.97382
3.63909,8.31538,1.97404
3.49632,9.21834,2.02398
3.49571,9.2222,2.02419
3.4951,9.22605,2.0244
3.49449,9.22991,2.02462
3.49388,9.23377,2.02483
3.59796,11.4002,1.67551
3.59733,11.4041,1.67573
3.5967,11.408,1.67595
3.59608,11.412,1.67618
3.57224,11.5613,1.68468
3.57161,11.5653,1.6849
3.57098,11.5692,1.68513
3.57035,11.5731,1.68535
3.56973,11.577,1.68557
3.5691,11.581,1.6858
3.56847,11.5849,1.68602
3.56784,11.5888,1.68624
3.56722,11.5928,1.68647
3.56659,11.5967,1.68669
3.56596,11.6006,1.68691
3.56534,11.6045,1.68714
3.56471,11.6085,1.68736
3.56408,11.6124,1.68759
3.56345,11.6163,1.68781
3.56283,11.6203,1.68803
3.5622,11.6242,1.68826
3.49133,12.0681,1.71352
3.49071,12.072,1.71375
3.49008,12.076,1.71397
5.00261,-0.303402,1.49068
4.818,0.864187,1.55526
5.2739,0.907605,1.07142
5.95248,3.0222,0.124063
5.95177,3.02635,0.124352
5.95106,3.03051,0.12464
5.37815,6.3756,0.355907
5.37744,6.37973,0.356195
4.71173,6.85192,1.00336
4.25021,7.32009,1.43641
4.24958,7.32404,1.43664
4.24895,7.32799,1.43686
3.6458,8.27806,1.96533
3.64519,8.28192,1.96555
3.64458,8.28578,1.96576
3.64397,8.28964,1.96597
3.64336,8.2935,1.96618
3.49385,9.23908,2.01849
3.49324,9.24294,2.0187
3.49263,9.2468,2.01891
3.49202,9.25065,2.01913
3.49141,9.25451,2.01934
3.4908,9.25837,2.01956
3.49019,9.26223,2.01977
3.48958,9.26608,2.01998
3.59605,11.4178,1.66965
3.59542,11.4217,1.66988
3.5948,11.4257,1.6701
3.59417,11.4296,1.67032
3.57911,11.5239,1.67569
3.5766,11.5397,1.67659
3.57597,11.5436,1.67681
3.57534,11.5475,1.67704
3.57472,11.5514,1.67726
3.57409,11.5554,1.67748
3.57346,11.5593,1.67771
3.56217,11.6301,1.68173
3.56154,11.634,1.68196
3.56091,11.6379,1.68218
3.56029,11.6418,1.68241
3.49442,12.0544,1.70589
3.4938,12.0583,1.70611
3.49317,12.0623,1.70634
3.49254,12.0662,1.70656
5.00409,-0.307596,1.48378
5.86069,-0.300204,0.582645
4.81822,0.867994,1.54881
5.27418,0.911505,1.06475
5.66281,0.932638,0.653946
5.9514,3.03499,0.117563
5.95068,3.03915,0.117855
5.94997,3.0433,0.118141
5.94926,3.04746,0.118429
5.94855,3.05161,0.118717
5.94784,3.05577,0.119001
5.94712,3.05992,0.119291
5.94641,3.06408,0.119576
5.9457,3.06824,0.119865
5.94499,3.07239,0.120152
5.94427,3.07655,0.120441
5.3812,6.3642,0.347763
5.3805,6.36833,0.348049
5.37979,6.37246,0.348335
4.71319,6.84895,0.996119
4.25157,7.31727,1.42938
3.65007,8.25616,1.95748
3.64946,8.26003,1.9577
3.64885,8.26389,1.95791
3.64824,8.26775,1.95812
3.64763,8.27161,1.95834
3.64702,8.27547,1.95855
3.48955,9.2714,2.01364
3.48894,9.27526,2.01385
3.48833,9.27912,2.01406
3.48772,9.28298,2.01428
3.59414,11.4354,1.6638
3.59352,11.4393,1.66402
3.59289,11.4433,1.66425
3.59226,11.4472,1.66447
3.59163,11.4511,1.66469
3.59101,11.4551,1.66492
3.59038,11.459,1.66514
3.58975,11.4629,1.66536
3.58912,11.4669,1.66559
3.5885,11.4708,1.66581
3.58787,11.4747,1.66603
3.58724,11.4787,1.66626
3.58661,11.4826,1.66648
3.58599,11.4865,1.66671
3.58536,11.4905,1.66693
3.58473,11.4944,1.66715
3.5841,11.4983,1.66738
3.58348,11.5023,1.6676
3.58285,11.5062,1.66783
3.58222,11.5101,1.66805
3.58159,11.514,1.66827
3.58097,11.518,1.6685
3.58034,11.5219,1.66872
3.57908,11.5298,1.66917
3.57845,11.5337,1.66939
3.57783,11.5376,1.66962
3.56026,11.6477,1.67588
3.55963,11.6516,1.67611
3.559,11.6556,1.67633
3.55837,11.6595,1.67655
3.49814,12.0368,1.69803
3.49752,12.0407,1.69825
3.49689,12.0446,1.69847
3.49626,12.0486,1.6987
3.49563,12.0525,1.69892
4.81843,0.871802,1.54235
4.81781,0.875693,1.54256
5.27447,0.915406,1.05807
5.66317,0.936616,0.647078
5.94461,3.08104,0.113367
5.9439,3.0852,0.113651
5.94319,3.08935,0.113941
5.94248,3.09351,0.114227
5.94176,3.09766,0.114517
5.38425,6.3528,0.339619
5.38355,6.35692,0.339905
5.38284,6.36105,0.340191
4.71531,6.84195,0.988634
4.71466,6.84598,0.988869
4.25419,7.30654,1.42189
4.25356,7.31049,1.42212
4.25293,7.31444,1.42234
3.65312,8.24199,1.95005
3.65251,8.24585,1.95027
3.6519,8.24971,1.95048
3.65129,8.25358,1.95069
3.48769,9.2883,2.00793
3.48708,9.29216,2.00815
3.48647,9.29602,2.00836
3.55834,11.6654,1.67003
3.55771,11.6693,1.67025
3.55709,11.6732,1.67048
3.55646,11.6772,1.6707
3.51441,11.9405,1.68569
3.51379,11.9445,1.68591
3.51316,11.9484,1.68614
3.51253,11.9523,1.68636
3.5119,11.9563,1.68659
3.50877,11.9759,1.68771
3.50814,11.9798,1.68793
3.50751,11.9838,1.68815
3.50689,11.9877,1.68838
3.50626,11.9916,1.6886
3.50563,11.9956,1.68882
3.505,11.9995,1.68905
3.50438,12.0034,1.68927
3.50375,12.0073,1.6895
3.50312,12.0113,1.68972
3.50249,12.0152,1.68994
3.50187,12.0191,1.69016
3.50124,12.0231,1.69039
3.50061,12.027,1.69061
3.49998,12.0309,1.69084
3.49936,12.0349,1.69106
5.00643,-0.312094,1.47018
5.86344,-0.304887,0.568157
4.81803,0.879503,1.5361
5.27476,0.919309,1.05139
5.66353,0.940595,0.640202
5.9421,3.10216,0.107439
5.94139,3.10632,0.107725
5.94067,3.11048,0.108017
5.93996,3.11463,0.108299
5.93925,3.11879,0.108585
5.93854,3.12294,0.108875
5.93783,3.1271,0.109163
5.93711,3.13126,0.109453
5.38661,6.34551,0.331749
5.3859,6.34964,0.332037
4.71678,6.83898,0.981382
4.25618,7.29976,1.41463
4.25555,7.30371,1.41486
3.6574,8.22008,1.94219
3.65679,8.22395,1.94241
3.65618,8.22781,1.94262
3.65557,8.23167,1.94283
3.65495,8.23554,1.94305
3.65435,8.2394,1.94326
3.48644,9.30135,2.00201
3.48583,9.3052,2.00222
3.48522,9.30906,2.00244
3.55643,11.683,1.66417
3.5558,11.687,1.6644
3.55517,11.6909,1.66462
3.51814,11.9229,1.67782
3.51752,11.9268,1.67805
3.51689,11.9307,1.67827
3.51626,11.9347,1.67849
3.51563,11.9386,1.67872
3.51187,11.9622,1.68006
3.51124,11.9661,1.68028
3.51061,11.97,1.68051
3.50998,11.974,1.68073
5.00791,-0.316292,1.46327
5.47089,-0.303553,0.974857
4.81824,0.883314,1.52964
5.27505,0.923213,1.0447
5.66389,0.944577,0.633324
5.93744,3.13576,0.102373
5.93674,3.13992,0.102657
5.93602,3.14408,0.102949
5.93531,3.14823,0.103235
5.9346,3.15239,0.103523
5.93389,3.15655,0.103811
5.93318,3.16071,0.104094
5.93246,3.16486,0.104385
5.93175,3.16902,0.104671
5.93104,3.17318,0.104959
5.93033,3.17733,0.105249
5.92962,3.18149,0.105534
5.9289,3.18564,0.105824
5.92819,3.1898,0.106108
5.91965,3.23968,0.10956
5.91894,3.24383,0.10985
5.91823,3.24799,0.110132
5.91751,3.25215,0.110422
5.9168,3.2563,0.110708
5.91609,3.26046,0.110996
5.91538,3.26461,0.111284
5.91467,3.26877,0.111574
5.91396,3.27293,0.111856
5.91324,3.27708,0.112144
5.91253,3.28124,0.112434
5.91182,3.28539,0.11272
5.91111,3.28955,0.113008
5.9104,3.2937,0.113297
5.90968,3.29786,0.113585
5.90897,3.30202,0.113873
5.90826,3.30617,0.114157
5.90755,3.31033,0.114447
5.90684,3.31448,0.114731
5.90612,3.31864,0.115023
5.90541,3.32279,0.115307
5.9047,3.32695,0.115595
5.90399,3.3311,0.115885
5.90328,3.33526,0.116173
5.90257,3.33941,0.116457
5.90186,3.34357,0.116745
5.90114,3.34772,0.117033
5.90043,3.35188,0.117319
5.89972,3.35603,0.117611
5.89901,3.36019,0.117895
5.8983,3.36434,0.118183
5.89758,3.3685,0.118471
5.89688,3.37265,0.118755
5.89616,3.37681,0.119045
5.89545,3.38096,0.119331
5.38895,6.33823,0.323881
5.38825,6.34236,0.324165
4.7189,6.83198,0.973894
4.71825,6.83601,0.974127
4.25817,7.29298,1.40736
4.25754,7.29693,1.40759
3.66107,8.20203,1.93455
3.66046,8.20589,1.93476
3.65985,8.20976,1.93497
3.65923,8.21362,1.93519
3.65862,8.21749,1.9354
3.48519,9.31439,1.99609
3.48458,9.31826,1.9963
3.55514,11.6968,1.65809
3.55451,11.7007,1.65831
