9.30048,-2.86321,-0.37223
9.29557,-2.84962,-0.365476
9.29434,-2.84623,-0.363786
9.29311,-2.84283,-0.3621
9.29189,-2.83944,-0.360418
9.29066,-2.83605,-0.358729
9.15005,-2.44704,-0.165497
9.14888,-2.44378,-0.163876
9.12189,-2.36913,-0.126793
9.12073,-2.36589,-0.125192
9.0651,-2.21199,-0.0487347
9.06395,-2.20881,-0.0471573
9.03305,-2.12334,-0.00470161
9.03191,-2.12019,-0.00313759
9.03078,-2.11704,-0.0015707
9.02964,-2.11389,-6.67572e-06
9.0285,-2.11074,0.0015564
9.00131,-2.0355,0.038929
9.00018,-2.03238,0.0404806
8.99905,-2.02926,0.0420313
8.99792,-2.02614,0.043582
8.99679,-2.02302,0.0451326
8.99567,-2.0199,0.0466776
8.99454,-2.01679,0.0482264
8.99341,-2.01367,0.0497751
8.99229,-2.01056,0.0513229
8.99116,-2.00744,0.052866
8.99004,-2.00433,0.0544128
8.98891,-2.00122,0.0559616
8.98779,-1.99811,0.0575027
8.98666,-1.995,0.0590506
8.96873,-1.94538,0.0836954
8.96761,-1.94229,0.0852337
8.9665,-1.9392,0.0867672
8.96538,-1.93611,0.0883045
8.93647,-1.85611,0.128041
8.93536,-1.85305,0.129562
8.91439,-1.79504,0.158378
8.91329,-1.79199,0.159888
8.91219,-1.78895,0.161401
8.31581,5.65982,-0.132182
8.31484,5.66207,-0.130754
8.31386,5.66432,-0.129328
8.31289,5.66657,-0.127903
8.31191,5.66881,-0.126473
8.30218,5.69123,-0.112235
8.30121,5.69346,-0.110811
8.30024,5.6957,-0.109392
8.29927,5.69794,-0.107973
8.1876,5.95521,0.0554142
8.18666,5.95737,0.0567894
8.18572,5.95953,0.0581608
8.18478,5.96169,0.0595312
8.18385,5.96385,0.0609026
8.18291,5.966,0.0622759
8.18197,5.96816,0.0636463
8.18104,5.97032,0.0650158
8.1801,5.97248,0.0663843
8.17916,5.97464,0.0677528
8.16795,6.00046,0.0841579
8.16702,6.00261,0.0855207
8.16609,6.00476,0.0868845
7.26257,2.77498,2.42848
6.70336,0.643551,3.90315
6.7029,0.644958,3.90376
6.70244,0.646363,3.90437
6.70198,0.64777,3.90498
6.23751,-1.25883,5.15598
6.23719,-1.25772,5.15639
6.23686,-1.25661,5.1568
6.23424,-1.24773,5.16008
6.23392,-1.24662,5.16049
6.23359,-1.24552,5.1609
6.23326,-1.24441,5.16131
6.23294,-1.2433,5.16172
6.23261,-1.24219,5.16213
6.23228,-1.24108,5.16254
6.23196,-1.23998,5.16295
6.23163,-1.23887,5.16336
6.2313,-1.23776,5.16377
6.23098,-1.23666,5.16418
6.23065,-1.23555,5.16458
6.23033,-1.23444,5.16499
6.23,-1.23334,5.1654
6.22967,-1.23223,5.16581
6.22935,-1.23112,5.16622
6.21733,-1.19036,5.18129
6.21701,-1.18927,5.18169
6.21669,-1.18817,5.1821
6.21636,-1.18707,5.1825
6.21604,-1.18598,5.18291
6.21572,-1.18488,5.18331
6.21539,-1.18378,5.18372
6.21507,-1.18268,5.18412
6.21475,-1.18159,5.18453
6.21443,-1.18049,5.18493
6.2141,-1.1794,5.18534
6.21378,-1.1783,5.18574
6.21346,-1.17721,5.18615
6.20412,-1.14554,5.19785
6.2038,-1.14445,5.19826
6.34925,1.7236,4.37055
6.34886,1.72478,4.37106
6.34848,1.72595,4.37157
6.34809,1.72713,4.37208
6.182,2.23371,4.5913
6.18165,2.23479,4.59177
6.18129,2.23587,4.59223
6.18094,2.23694,4.5927
6.18059,2.23802,4.59317
6.18023,2.23909,4.59363
6.17671,2.24984,4.59828
6.17636,2.25091,4.59875
6.17601,2.25199,4.59921
6.17566,2.25306,4.59967
6.1753,2.25413,4.60014
11.7768,-2.24756,-5.22826
9.71815,-3.97366,-0.968575
9.71677,-3.96986,-0.966675
9.71539,-3.96605,-0.964778
9.67971,-3.86754,-0.915634
9.67834,-3.86377,-0.913752
9.30707,-2.83879,-0.402411
9.30583,-2.83538,-0.400711
9.3046,-2.83197,-0.399016
9.15486,-2.4186,-0.19279
9.15368,-2.41534,-0.191159
9.13012,-2.3503,-0.158712
9.0696,-2.18323,-0.075367
9.04203,-2.10709,-0.037385
9.04088,-2.10393,-0.0358086
8.99203,-1.96907,0.0314703
8.9909,-1.96596,0.03302
8.98978,-1.96285,0.0345764
8.98865,-1.95974,0.03613
8.98752,-1.95662,0.0376778
8.9864,-1.95352,0.0392323
8.97852,-1.93178,0.0500736
8.9774,-1.92868,0.0516243
8.97628,-1.92558,0.0531712
8.94053,-1.8269,0.102395
8.93942,-1.82384,0.103928
8.92833,-1.79322,0.119198
8.92723,-1.79017,0.120724
8.92612,-1.78711,0.122248
8.92501,-1.78406,0.123771
8.92391,-1.781,0.125294
8.9228,-1.77796,0.126821
8.9217,-1.7749,0.12834
8.91728,-1.76271,0.13442
8.91618,-1.75966,0.135943
8.91507,-1.75662,0.137462
8.91397,-1.75357,0.13898
8.30049,5.73837,-0.13085
8.29952,5.7406,-0.129422
8.29854,5.74284,-0.127995
8.19324,5.98474,0.0264091
8.1923,5.9869,0.0277882
8.19136,5.98907,0.0291681
8.19042,5.99122,0.0305529
8.18008,6.01497,0.0457077
8.17915,6.01713,0.0470829
8.17821,6.01928,0.0484571
8.17727,6.02143,0.0498352
8.17633,6.02358,0.0512085
8.1754,6.02574,0.0525818
8.17446,6.02789,0.0539541
8.17352,6.03004,0.0553274
8.17259,6.03219,0.0566988
8.17165,6.03434,0.0580702
8.17072,6.03649,0.0594435
7.26402,2.80143,2.41137
6.70541,0.659176,3.88906
6.70495,0.660586,3.88967
6.70449,0.661994,3.89028
6.70402,0.663402,3.8909
6.23816,-1.24436,5.14654
6.23783,-1.24325,5.14695
6.2034,-1.1266,5.19022
6.20308,-1.12551,5.19063
6.20275,-1.12442,5.19103
6.20243,-1.12333,5.19144
6.19378,-1.09402,5.20231
6.19346,-1.09293,5.20271
6.19314,-1.09185,5.20311
6.19282,-1.09077,5.20351
6.1925,-1.08969,5.20392
6.19218,-1.08861,5.20432
6.19186,-1.08752,5.20472
6.34719,1.74988,4.36286
6.3468,1.75106,4.36337
6.34641,1.75223,4.36388
6.34603,1.75341,4.36439
6.34564,1.75459,4.3649
6.18225,2.25207,4.58101
6.1819,2.25314,4.58148
6.18154,2.25422,4.58194
6.17907,2.26175,4.58522
6.17872,2.26283,4.58568
6.17836,2.2639,4.58615
6.17801,2.26498,4.58662
6.17766,2.26605,4.58708
6.17731,2.26713,4.58755
6.17695,2.2682,4.58802
6.1766,2.26927,4.58848
6.17625,2.27035,4.58895
9.87633,-4.3641,-1.20934
9.87489,-4.36013,-1.20735
9.87345,-4.35616,-1.20536
9.87201,-4.3522,-1.20337
9.87057,-4.34823,-1.20139
9.86913,-4.34427,-1.1994
9.86769,-4.34031,-1.19742
9.84046,-4.2653,-1.15984
9.83904,-4.26137,-1.15787
9.83761,-4.25744,-1.1559
9.72374,-3.94376,-0.998736
9.72235,-3.93995,-0.996821
9.72097,-3.93614,-0.994911
9.71959,-3.93232,-0.993003
9.7182,-3.92851,-0.991094
9.69202,-3.85638,-0.954955
9.69065,-3.85259,-0.953061
9.1597,-2.39,-0.220236
9.15851,-2.38673,-0.218603
9.15733,-2.38346,-0.216966
9.13959,-2.33459,-0.192477
9.13841,-2.33134,-0.190854
9.0753,-2.1575,-0.103748
9.07414,-2.15431,-0.102147
9.05106,-2.09073,-0.0702982
9.04991,-2.08757,-0.0687122
8.99177,-1.92741,0.0115318
8.99064,-1.9243,0.013093
8.98951,-1.92119,0.0146542
8.98838,-1.91808,0.0162115
8.98725,-1.91497,0.0177708
8.98613,-1.91185,0.0193262
8.94462,-1.79753,0.0766106
8.94351,-1.79446,0.0781469
8.9424,-1.79139,0.0796852
8.94128,-1.78832,0.0812254
8.94017,-1.78525,0.0827599
8.93905,-1.78219,0.0842972
8.93794,-1.77912,0.0858326
8.93683,-1.77606,0.0873709
8.93572,-1.77299,0.0889034
8.91908,-1.72716,0.111866
8.91797,-1.72411,0.113396
8.29977,5.78345,-0.150966
8.29879,5.78569,-0.149533
8.29782,5.78792,-0.148101
8.27935,5.83023,-0.120963
8.19893,6.01445,-0.0027771
8.19798,6.01662,-0.00138855
8.19704,6.01878,2.86102e-06
8.19609,6.02094,0.00139141
7.26549,2.82801,2.39418
6.707,0.676297,3.87551
6.70654,0.677707,3.87612
6.70608,0.679118,3.87674
6.2388,-1.22983,5.13706
6.23847,-1.22871,5.13748
6.20202,-1.10541,5.18338
6.2017,-1.10432,5.18378
6.20138,-1.10323,5.18419
6.20106,-1.10214,5.18459
6.20074,-1.10105,5.185
6.20042,-1.09996,5.1854
6.20009,-1.09888,5.18581
6.19977,-1.09779,5.18621
6.19945,-1.0967,5.18662
6.19496,-1.0815,5.19228
6.19464,-1.08042,5.19268
6.19432,-1.07933,5.19308
6.194,-1.07825,5.19349
6.19144,-1.06959,5.19671
6.19112,-1.0685,5.19711
6.1908,-1.06742,5.19752
6.34473,1.77742,4.35566
6.34434,1.7786,4.35617
6.34396,1.77977,4.35669
6.34357,1.78095,4.3572
6.34318,1.78212,4.35771
6.3428,1.7833,4.35822
6.34241,1.78447,4.35874
6.34202,1.78565,4.35925
6.34164,1.78682,4.35976
6.34125,1.78799,4.36027
6.34087,1.78917,4.36078
6.34048,1.79034,4.36129
6.34009,1.79151,4.36181
6.33971,1.79269,4.36232
6.18215,2.27158,4.57114
6.1818,2.27265,4.57161
9.88831,-4.35059,-1.24892
9.87673,-4.31878,-1.23291
9.87529,-4.31481,-1.23092
9.87385,-4.31084,-1.22892
9.86087,-4.27519,-1.21098
9.85944,-4.27123,-1.20899
9.858,-4.26728,-1.207
9.85656,-4.26333,-1.20501
9.85513,-4.25938,-1.20303
9.85369,-4.25543,-1.20104
9.85225,-4.25149,-1.19905
9.72658,-3.90605,-1.02522
9.72519,-3.90223,-1.0233
9.7238,-3.89841,-1.02138
9.72241,-3.8946,-1.01946
9.72103,-3.89079,-1.01754
9.71964,-3.88697,-1.01562
9.70718,-3.85273,-0.998396
9.7058,-3.84893,-0.996486
9.70442,-3.84514,-0.994575
9.70304,-3.84134,-0.992665
9.16337,-2.35796,-0.2462
9.16218,-2.35469,-0.244553
9.16099,-2.35141,-0.24291
9.1598,-2.34814,-0.241264
9.1503,-2.32203,-0.228123
9.14912,-2.31877,-0.226484
9.14793,-2.31551,-0.224844
9.07986,-2.12842,-0.130692
9.0787,-2.12522,-0.129086
9.05901,-2.07109,-0.101845
8.92311,-1.69754,0.086134
8.922,-1.69449,0.0876694
8.92089,-1.69144,0.0892048
8.29904,5.82873,-0.171169
8.29807,5.83096,-0.169731
8.29709,5.83319,-0.168293
8.29611,5.83543,-0.166855
8.29514,5.83766,-0.165419
8.29416,5.83989,-0.163981
8.29318,5.84212,-0.162545
8.29221,5.84434,-0.161105
8.29123,5.84657,-0.159669
8.29026,5.84879,-0.158234
8.28928,5.85102,-0.156798
8.28831,5.85324,-0.155363
8.28734,5.85547,-0.15393
8.28636,5.85769,-0.152496
8.28539,5.85992,-0.151064
8.28442,5.86214,-0.14963
8.28344,5.86436,-0.148196
8.28247,5.86658,-0.146765
8.28053,5.87102,-0.143902
8.27955,5.87324,-0.142469
8.27858,5.87546,-0.14104
8.27761,5.87768,-0.139609
8.27664,5.87989,-0.138179
8.27567,5.88211,-0.136751
8.2747,5.88433,-0.135321
8.27373,5.88654,-0.133894
8.27276,5.88876,-0.132464
8.27179,5.89097,-0.131039
8.27082,5.89318,-0.129608
8.26985,5.8954,-0.128183
8.20369,6.04651,-0.0307446
8.20274,6.04867,-0.0293427
8.2018,6.05085,-0.0279474
7.26759,2.85298,2.37603
7.26696,2.85473,2.3769
6.70861,0.693501,3.86189
6.70814,0.694914,3.86251
6.70768,0.696325,3.86313
6.23945,-1.21523,5.12754
6.23912,-1.21411,5.12796
6.19904,-1.0787,5.17854
6.19871,-1.07761,5.17895
6.19839,-1.07653,5.17935
6.19807,-1.07544,5.17976
6.19775,-1.07435,5.18016
6.19743,-1.07327,5.18057
6.1971,-1.07218,5.18098
6.19678,-1.07109,5.18138
6.19646,-1.07001,5.18179
6.19614,-1.06892,5.18219
6.19582,-1.06784,5.1826
6.1955,-1.06675,5.183
6.19518,-1.06567,5.18341
6.19036,-1.04941,5.18948
6.19004,-1.04833,5.18989
6.18972,-1.04725,5.19029
6.33879,1.81561,4.35306
6.3384,1.81678,4.35358
6.33801,1.81795,4.35409
6.33763,1.81912,4.3546
6.33724,1.82029,4.35512
6.1817,2.29224,4.5617
9.90183,-4.34098,-1.29083
9.90038,-4.33698,-1.28881
9.88294,-4.28915,-1.26463
9.88149,-4.28517,-1.26262
9.88004,-4.2812,-1.26061
9.87859,-4.27722,-1.25861
9.87714,-4.27325,-1.2566
9.87569,-4.26928,-1.25459
9.87425,-4.26531,-1.25259
9.8728,-4.26134,-1.25058
9.72804,-3.86432,-1.04992
9.72665,-3.8605,-1.04799
9.72526,-3.85668,-1.04606
9.72386,-3.85287,-1.04413
9.72247,-3.84905,-1.0422
9.72108,-3.84524,-1.04028
9.71969,-3.84143,-1.03835
9.71831,-3.83762,-1.03642
9.16587,-2.32247,-0.270645
9.16467,-2.31919,-0.268991
9.16348,-2.31592,-0.267339
9.16229,-2.31265,-0.265684
9.1611,-2.30938,-0.26403
9.15991,-2.30611,-0.262383
9.15871,-2.30284,-0.260729
9.08445,-2.09917,-0.157789
9.08329,-2.09597,-0.156171
9.067,-2.05131,-0.133602
8.92604,-1.6647,0.061801
8.92493,-1.66164,0.0633421
8.92381,-1.65859,0.0648861
8.9227,-1.65554,0.0664263
8.92159,-1.65249,0.0679684
8.87081,-1.51322,0.138356
8.86972,-1.51022,0.139874
8.86862,-1.50722,0.141395
8.86753,-1.50421,0.142907
8.86643,-1.50121,0.144425
8.86534,-1.49821,0.145943
8.86425,-1.49521,0.147458
8.86315,-1.49221,0.148974
8.86206,-1.48922,0.150491
8.86097,-1.48622,0.152002
8.85987,-1.48322,0.153517
8.85878,-1.48023,0.155029
8.27101,5.93638,-0.151158
8.27004,5.93859,-0.149724
8.26907,5.9408,-0.148291
8.2681,5.94301,-0.146859
8.26713,5.94522,-0.145426
8.26616,5.94743,-0.143993
8.26519,5.94964,-0.142563
8.26422,5.95185,-0.141134
8.26325,5.95406,-0.139706
8.26228,5.95626,-0.138273
8.26131,5.95847,-0.136846
8.26034,5.96067,-0.135414
8.25938,5.96287,-0.133986
8.25841,5.96508,-0.132561
8.25744,5.96728,-0.131133
8.25647,5.96948,-0.129704
8.25551,5.97168,-0.128279
8.25454,5.97388,-0.126849
8.25358,5.97609,-0.125426
8.25261,5.97828,-0.124
8.25164,5.98048,-0.122573
8.25068,5.98268,-0.121149
8.24971,5.98488,-0.119726
8.24875,5.98708,-0.118302
8.24779,5.98927,-0.116879
8.24682,5.99147,-0.115458
8.24586,5.99366,-0.114033
8.24489,5.99586,-0.11261
8.24393,5.99805,-0.111187
8.24297,6.00025,-0.109768
8.242,6.00243,-0.108345
8.24104,6.00462,-0.106922
8.24008,6.00682,-0.105505
8.23912,6.00901,-0.104086
8.23816,6.0112,-0.102669
8.2372,6.01339,-0.101247
8.23623,6.01557,-0.0998268
8.23527,6.01777,-0.0984125
8.23431,6.01995,-0.0969954
8.23335,6.02214,-0.0955782
8.23239,6.02432,-0.0941591
8.23143,6.02651,-0.0927429
8.23048,6.0287,-0.0913296
8.22952,6.03088,-0.0899124
8.22856,6.03306,-0.0884981
8.2276,6.03524,-0.0870819
8.22664,6.03743,-0.0856695
8.22568,6.03961,-0.0842543
8.22473,6.04179,-0.0828428
8.22377,6.04397,-0.0814285
8.2123,6.07008,-0.0645018
8.21135,6.07225,-0.063096
8.2104,6.07443,-0.0616922
8.20944,6.0766,-0.0602818
8.20849,6.07876,-0.058876
8.20754,6.08094,-0.0574722
8.20658,6.0831,-0.0560637
7.26907,2.87983,2.35866
6.71022,0.710793,3.84821
6.70975,0.712209,3.84883
6.70928,0.713619,3.84945
6.2401,-1.20055,5.11797
6.23977,-1.19944,5.11839
6.18929,-1.02917,5.18223
6.18897,-1.02808,5.18263
6.18865,-1.027,5.18304
6.18833,-1.02592,5.18344
6.18801,-1.02484,5.18385
6.18769,-1.02376,5.18425
6.18737,-1.02268,5.18466
6.18705,-1.0216,5.18506
6.18673,-1.02052,5.18547
6.18641,-1.01944,5.18587
6.18609,-1.01836,5.18628
6.18577,-1.01728,5.18668
6.18545,-1.0162,5.18709
6.18513,-1.01512,5.18749
6.1848,-1.01404,5.1879
6.18449,-1.01296,5.1883
6.18417,-1.01188,5.18871
6.18385,-1.0108,5.18911
6.18353,-1.00973,5.18951
6.18321,-1.00865,5.18992
6.18289,-1.00757,5.19032
6.18257,-1.00649,5.19073
6.18225,-1.00542,5.19113
6.18193,-1.00434,5.19153
6.18161,-1.00326,5.19194
6.18129,-1.00219,5.19234
6.18097,-1.00111,5.19275
6.18065,-1.00003,5.19315
6.18033,-0.998956,5.19355
6.33631,1.8433,4.34584
6.33593,1.84447,4.34635
6.33554,1.84564,4.34687
6.18159,2.31192,4.55175
6.18124,2.313,4.55223
9.914,-4.32728,-1.33102
9.08907,-2.06975,-0.185037
9.0879,-2.06655,-0.183414
9.07622,-2.03459,-0.167189
9.07505,-2.03139,-0.165568
8.92676,-1.62557,0.0404387
8.92564,-1.62252,0.0419874
8.92453,-1.61946,0.043539
8.92341,-1.61641,0.0450859
8.9223,-1.61336,0.0466366
8.92118,-1.61031,0.0481853
8.92007,-1.60726,0.0497313
8.91895,-1.60421,0.0512838
8.91784,-1.60116,0.0528297
8.89012,-1.5253,0.0913372
8.88902,-1.52228,0.0928707
8.88791,-1.51926,0.0944061
8.88681,-1.51624,0.0959387
8.8857,-1.51322,0.0974684
8.8846,-1.5102,0.099
8.8835,-1.50719,0.100533
8.8824,-1.50417,0.102064
8.8813,-1.50116,0.103597
8.8802,-1.49814,0.105122
8.8791,-1.49513,0.106652
8.87799,-1.49212,0.108181
8.86372,-1.45306,0.128012
8.86263,-1.45006,0.129531
8.86153,-1.44706,0.131054
8.22481,6.08511,-0.104179
8.22385,6.08728,-0.102758
8.22289,6.08946,-0.101341
8.22193,6.09164,-0.0999212
8.22097,6.09382,-0.098505
8.22001,6.09599,-0.097085
8.21906,6.09817,-0.0956688
8.2181,6.10034,-0.0942507
8.21714,6.10252,-0.0928364
8.21618,6.1047,-0.091423
8.21523,6.10687,-0.0900049
7.27183,2.90332,2.33943
7.2712,2.90507,2.34032
7.27056,2.90681,2.3412
6.71137,0.729586,3.83508
6.7109,0.731001,3.8357
6.24474,-1.19923,5.10331
6.24441,-1.19811,5.10373
6.24408,-1.19699,5.10416
6.24375,-1.19587,5.10458
6.24341,-1.19475,5.105
6.24308,-1.19364,5.10542
6.24275,-1.19252,5.10584
6.24242,-1.1914,5.10626
6.24209,-1.19028,5.10668
6.24175,-1.18917,5.1071
6.24142,-1.18805,5.10752
6.24109,-1.18693,5.10794
6.24076,-1.18581,5.10836
6.24043,-1.1847,5.10878
6.17988,-0.980791,5.1855
6.17956,-0.979715,5.18591
6.17924,-0.978638,5.18631
6.17892,-0.977563,5.18672
6.33461,1.86873,4.33756
6.33422,1.8699,4.33807
6.33383,1.87107,4.33859
6.18114,2.33275,4.54224
9.92626,-4.31347,-1.37152
9.09371,-2.04017,-0.212447
9.09254,-2.03696,-0.210812
9.09136,-2.03376,-0.209179
9.09019,-2.03055,-0.207548
9.08902,-2.02735,-0.205914
9.08784,-2.02414,-0.204281
9.08667,-2.02094,-0.202649
9.0855,-2.01775,-0.201013
9.08433,-2.01455,-0.199384
8.92301,-1.57405,0.0252104
8.92189,-1.571,0.0267649
8.92077,-1.56795,0.0283184
8.91966,-1.5649,0.0298738
8.91854,-1.56185,0.0314293
8.90517,-1.52536,0.0500374
8.90406,-1.52232,0.0515852
8.90295,-1.51929,0.0531273
8.90184,-1.51625,0.0546751
8.90073,-1.51322,0.056221
8.89962,-1.51019,0.0577669
8.89851,-1.50716,0.0593119
8.8974,-1.50413,0.0608568
8.86649,-1.41972,0.103893
8.86539,-1.41672,0.105423
8.86429,-1.41372,0.106952
7.27461,2.92694,2.3201
7.27397,2.92868,2.32099
7.27333,2.93043,2.32188
6.71299,0.747054,3.82125
6.71252,0.748472,3.82188
6.71205,0.749886,3.82251
6.24641,-1.1878,5.09236
6.24608,-1.18668,5.09279
6.24574,-1.18555,5.09321
6.24541,-1.18444,5.09363
6.24508,-1.18332,5.09406
6.17847,-0.959324,5.17864
6.17815,-0.958249,5.17904
6.17783,-0.957173,5.17945
6.17751,-0.956097,5.17986
6.17719,-0.955021,5.18026
6.17687,-0.953947,5.18067
6.17655,-0.952871,5.18107
6.17623,-0.951797,5.18148
6.17591,-0.950723,5.18189
6.17559,-0.949648,5.18229
6.17527,-0.948573,5.1827
6.17495,-0.9475,5.1831
6.17463,-0.946426,5.18351
6.17431,-0.945354,5.18391
6.17399,-0.944279,5.18432
6.17367,-0.943206,5.18472
6.17335,-0.942132,5.18513
6.17303,-0.94106,5.18553
6.33289,1.89425,4.32925
6.33251,1.89542,4.32977
6.33212,1.89659,4.33028
6.33173,1.89776,4.3308
6.33134,1.89893,4.33132
6.33096,1.90009,4.33184
6.33057,1.90126,4.33236
6.33018,1.90243,4.33287
6.32979,1.9036,4.33339
6.32941,1.90477,4.33391
6.32902,1.90594,4.33442
6.32863,1.90711,4.33494
6.32825,1.90827,4.33546
6.32786,1.90944,4.33598
6.32747,1.91061,4.33649
6.32709,1.91177,4.33701
6.3267,1.91294,4.33753
6.32631,1.91411,4.33804
6.18103,2.35259,4.53221
6.18068,2.35367,4.53269
9.93862,-4.29957,-1.41233
8.92372,-1.53456,0.00367546
8.9226,-1.53151,0.00523949
8.92148,-1.52846,0.00680065
8.92036,-1.52541,0.00836372
8.91924,-1.52236,0.00992584
8.91812,-1.51931,0.011488
8.91701,-1.51627,0.0130472
8.91589,-1.51322,0.0146074
8.91477,-1.51018,0.0161657
8.91365,-1.50713,0.017725
8.91254,-1.50409,0.0192842
8.86927,-1.38621,0.0796471
8.86817,-1.38321,0.0811863
8.86707,-1.38021,0.0827255
8.86596,-1.37721,0.0842609
8.83418,-1.29062,0.128608
8.83309,-1.28764,0.130129
8.832,-1.28468,0.131651
8.83091,-1.28171,0.133171
8.82982,-1.27874,0.13469
8.82873,-1.27577,0.136214
8.82764,-1.2728,0.13773
8.82655,-1.26984,0.139248
7.27676,2.95243,2.30156
7.27612,2.95418,2.30246
6.71462,0.764609,3.80736
6.71415,0.766026,3.80799
6.71368,0.767446,3.80862
6.2511,-1.18642,5.07752
6.25076,-1.1853,5.07795
6.25043,-1.18417,5.07837
6.25009,-1.18305,5.0788
6.24976,-1.18192,5.07923
6.24943,-1.1808,5.07965
6.24909,-1.17968,5.08008
6.24876,-1.17855,5.0805
6.24842,-1.17743,5.08093
6.24809,-1.17631,5.08136
6.24775,-1.17518,5.08178
6.24742,-1.17406,5.08221
6.24708,-1.17294,5.08263
6.24675,-1.17182,5.08306
6.17257,-0.922743,5.17745
6.17225,-0.921672,5.17786
6.17193,-0.920599,5.17826
6.32536,1.93736,4.3287
6.32498,1.93853,4.32922
6.32459,1.9397,4.32973
6.31725,1.9618,4.33956
6.31687,1.96296,4.34007
6.31648,1.96412,4.34059
6.3161,1.96528,4.34111
6.31571,1.96644,4.34162
6.30956,1.98497,4.34986
6.30918,1.98613,4.35037
6.30879,1.98728,4.35089
6.30841,1.98844,4.3514
6.30803,1.98959,4.35192
6.30764,1.99075,4.35243
6.30726,1.9919,4.35294
6.30688,1.99306,4.35346
6.30649,1.99421,4.35397
6.18057,2.37359,4.52262
8.87096,-1.34953,0.0568266
8.86986,-1.34652,0.0583696
8.86875,-1.34352,0.0599174
8.86765,-1.34052,0.0614567
8.84344,-1.27472,0.0953026
8.84235,-1.27174,0.0968351
8.84125,-1.26876,0.0983686
8.8314,-1.242,0.112138
8.83031,-1.23903,0.113665
8.82922,-1.23606,0.115189
8.76543,-1.06266,0.204387
7.27893,2.97806,2.28292
7.27828,2.97981,2.28382
6.71721,0.779413,3.79214
6.71674,0.780833,3.79277
6.71626,0.782254,3.7934
6.71579,0.783673,3.79404
6.71532,0.785092,3.79467
6.2528,-1.17489,5.06644
6.25246,-1.17376,5.06686
6.25212,-1.17263,5.06729
6.25179,-1.17151,5.06772
6.25145,-1.17038,5.06815
6.17146,-0.902206,5.17015
6.32363,1.96304,4.32036
6.32324,1.96421,4.32088
6.32286,1.96537,4.3214
6.32247,1.96654,4.32192
6.31821,1.97934,4.32763
6.31783,1.9805,4.32815
6.31744,1.98166,4.32866
6.31706,1.98282,4.32918
6.31474,1.98978,4.33229
6.31435,1.99094,4.33281
6.31397,1.9921,4.33333
6.31358,1.99326,4.33384
6.3132,1.99442,4.33436
6.31281,1.99558,4.33488
6.31243,1.99674,4.3354
6.31204,1.9979,4.33591
6.31166,1.99905,4.33643
6.31127,2.00021,4.33694
6.31089,2.00137,4.33746
6.3105,2.00253,4.33798
6.31012,2.00368,4.3385
6.30973,2.00484,4.33901
6.30935,2.006,4.33953
6.30551,2.01755,4.34468
6.30512,2.01871,4.3452
6.18047,2.39359,4.5125
6.18011,2.39467,4.51298
9.96361,-4.27143,-1.49489
9.96211,-4.26737,-1.49279
8.87266,-1.31265,0.033885
8.87155,-1.30965,0.0354404
8.87045,-1.30664,0.0369892
8.86934,-1.30364,0.0385437
8.86823,-1.30064,0.0400934
8.86712,-1.29764,0.0416451
8.86602,-1.29464,0.0431929
8.85387,-1.2617,0.060215
8.85277,-1.25871,0.0617599
8.85167,-1.25572,0.063303
8.85057,-1.25273,0.0648441
8.83409,-1.20805,0.0879335
8.833,-1.20508,0.0894661
8.8319,-1.20211,0.0910044
8.77437,-1.04608,0.171622
8.77329,-1.04316,0.173131
8.77222,-1.04025,0.174639
8.77007,-1.03441,0.177649
8.76899,-1.0315,0.179157
8.76792,-1.02859,0.180663
8.76685,-1.02568,0.182168
8.76577,-1.02276,0.183673
8.74224,-0.958944,0.216642
8.74118,-0.956057,0.218138
8.74011,-0.95317,0.219633
8.73905,-0.950278,0.221123
8.73798,-0.947393,0.222616
8.73692,-0.944505,0.224105
8.73585,-0.941622,0.225598
8.73479,-0.938735,0.227086
8.73373,-0.935853,0.228578
8.73267,-0.932969,0.230064
8.7316,-0.930088,0.231555
7.28045,3.00558,2.26509
6.71933,0.79572,3.77746
6.71886,0.797143,3.7781
6.71839,0.798565,3.77873
6.71791,0.799987,3.77937
6.25382,-1.16103,5.05615
6.25349,-1.1599,5.05658
6.25315,-1.15877,5.05701
6.17098,-0.883742,5.16201
6.17066,-0.882669,5.16241
6.32151,1.98997,4.31251
6.32112,1.99114,4.31304
6.32073,1.9923,4.31356
6.32034,1.99346,4.31408
6.31996,1.99463,4.3146
6.31957,1.99579,4.31512
6.31918,1.99695,4.31564
6.31879,1.99812,4.31616
6.31841,1.99928,4.31668
6.31802,2.00044,4.3172
6.30413,2.04213,4.33588
6.30375,2.04328,4.3364
6.30336,2.04444,4.33691
6.18,2.41476,4.50283
8.87104,-1.26658,0.0155125
8.86993,-1.26358,0.0170746
8.86882,-1.26058,0.0186291
8.86771,-1.25758,0.0201912
8.8666,-1.25458,0.0217466
8.86549,-1.25158,0.0233068
8.86438,-1.24858,0.0248594
8.86327,-1.24558,0.0264187
8.86217,-1.24258,0.0279722
8.86106,-1.23959,0.0295258
8.83679,-1.17393,0.0636034
8.8357,-1.17096,0.0651493
8.8346,-1.16799,0.0666914
8.78338,-1.02938,0.138621
8.78229,-1.02646,0.140143
8.78121,-1.02353,0.141661
8.77042,-0.994335,0.156815
8.76935,-0.991424,0.158331
8.75109,-0.942017,0.183966
8.75002,-0.939121,0.185472
8.74895,-0.936227,0.186977
8.73613,-0.901538,0.204977
8.73506,-0.898657,0.206476
8.734,-0.895771,0.207971
8.73293,-0.892891,0.209469
8.73187,-0.890006,0.210962
8.7308,-0.887128,0.21246
8.72974,-0.884246,0.213952
8.72867,-0.881369,0.215448
8.72761,-0.878489,0.216939
8.72655,-0.875612,0.218432
7.28199,3.03324,2.24717
6.721,0.813539,3.76335
6.72052,0.814963,3.76399
6.72005,0.816386,3.76463
6.25452,-1.14598,5.04625
6.25418,-1.14485,5.04668
6.17019,-0.864129,5.15424
6.30237,2.06795,4.32757
6.18061,2.43278,4.49166
6.18025,2.43386,4.49215
6.17989,2.43494,4.49263
6.17953,2.43602,4.49312
9.98899,-4.24286,-1.57872
9.98747,-4.23877,-1.57659
8.83951,-1.13962,0.0391445
8.83841,-1.13665,0.040699
8.83731,-1.13368,0.0422497
8.83621,-1.1307,0.0437984
8.8351,-1.12773,0.0453491
8.834,-1.12476,0.046896
8.8329,-1.12179,0.0484495
8.8318,-1.11882,0.0499954
8.8307,-1.11585,0.0515432
8.82961,-1.11288,0.0530891
8.82851,-1.10992,0.054636
8.82741,-1.10695,0.0561819
8.82631,-1.10398,0.0577259
8.82521,-1.10103,0.0592756
8.82411,-1.09806,0.0608177
8.82302,-1.0951,0.0623617
8.82192,-1.09214,0.0639057
8.79353,-1.0155,0.103862
8.79245,-1.01256,0.10539
8.79136,-1.00963,0.10692
8.79027,-1.0067,0.108449
8.77402,-0.962824,0.131324
8.77294,-0.959906,0.132845
8.75892,-0.922067,0.152575
8.75785,-0.91916,0.154085
8.73107,-0.846866,0.191781
8.73,-0.843985,0.19328
8.72894,-0.841103,0.194779
8.72787,-0.838227,0.196281
8.7268,-0.835348,0.19778
7.28353,3.06103,2.22915
6.72267,0.831448,3.74917
6.72219,0.832874,3.74981
6.72171,0.834299,3.75045
6.25556,-1.13199,5.03587
6.25522,-1.13085,5.0363
6.25488,-1.12973,5.03674
6.16971,-0.845517,5.14603
6.15881,-0.809134,5.16002
6.15849,-0.808069,5.16043
6.15817,-0.807003,5.16084
6.15785,-0.805937,5.16125
6.15753,-0.804871,5.16166
6.15721,-0.803805,5.16207
6.15689,-0.802741,5.16248
6.15657,-0.801676,5.16289
6.15625,-0.800611,5.1633
6.15593,-0.799547,5.16371
6.15561,-0.798482,5.16412
6.30137,2.09155,4.31818
6.30098,2.0927,4.3187
6.18195,2.44872,4.47947
6.18159,2.4498,4.47995
6.18123,2.45088,4.48044
6.18087,2.45196,4.48093
6.18051,2.45304,4.48142
6.18015,2.45412,4.48191
10.0018,-4.2284,-1.62111
8.8268,-1.06355,0.0363436
8.8257,-1.06058,0.0378971
8.8246,-1.05762,0.0394487
8.8235,-1.05466,0.0409985
8.8224,-1.05169,0.0425472
8.81691,-1.03691,0.0502987
8.81581,-1.03395,0.0518465
8.81471,-1.031,0.0533915
8.81362,-1.02805,0.0549383
8.81252,-1.02509,0.0564842
8.81142,-1.02215,0.058033
8.81033,-1.0192,0.0595779
8.80924,-1.01624,0.06112
8.80814,-1.01329,0.0626593
8.80705,-1.01035,0.0642033
8.80595,-1.0074,0.0657492
8.80486,-1.00446,0.0672913
8.80377,-1.00151,0.0688334
8.80267,-0.998568,0.0703745
8.80158,-0.995625,0.0719156
8.80049,-0.992684,0.0734558
8.77764,-0.931137,0.105691
8.77655,-0.928215,0.10722
8.76681,-0.901976,0.120962
8.76573,-0.899066,0.122487
8.73133,-0.806417,0.171005
8.73026,-0.803539,0.172517
8.72919,-0.800659,0.174023
8.72813,-0.797779,0.175528
8.72706,-0.794906,0.177037
8.72599,-0.792027,0.178541
8.72492,-0.789151,0.180045
8.72386,-0.786281,0.181555
8.72279,-0.783406,0.183058
8.72172,-0.780533,0.18456
8.72066,-0.777663,0.186067
8.71959,-0.774791,0.187568
8.71853,-0.771922,0.189071
8.71746,-0.769055,0.190576
8.7164,-0.766187,0.192075
8.71533,-0.763317,0.193574
8.71427,-0.760451,0.195075
8.71321,-0.757589,0.196577
8.71214,-0.754725,0.198077
8.71108,-0.75186,0.199574
8.71002,-0.749002,0.201078
8.70895,-0.74614,0.202575
8.70789,-0.743279,0.204072
8.70683,-0.740418,0.205567
7.28508,3.08897,2.21105
6.72387,0.850876,3.73556
6.72339,0.852302,3.7362
6.25626,-1.11679,5.02587
6.25593,-1.11566,5.02631
6.16923,-0.826828,5.13779
6.16891,-0.825753,5.1382
6.15991,-0.795774,5.14977
6.15959,-0.794705,5.15018
6.15927,-0.793638,5.1506
6.15895,-0.792571,5.15101
6.15511,-0.779779,5.15594
6.15479,-0.778714,5.15636
6.15447,-0.77765,5.15677
6.29998,2.11639,4.30928
6.29959,2.11754,4.30981
6.19093,2.44197,4.45689
6.19056,2.44306,4.45738
6.1902,2.44415,4.45787
6.18983,2.44523,4.45837
6.18947,2.44632,4.45886
6.18911,2.4474,4.45935
6.18874,2.44849,4.45984
6.18838,2.44957,4.46033
6.18802,2.45066,4.46083
6.18258,2.46691,4.46819
6.18221,2.46798,4.46868
6.18185,2.46906,4.46917
6.18149,2.47015,4.46966
10.0163,-4.21795,-1.66601
10.0148,-4.21384,-1.66385
8.82729,-1.02292,0.0148649
8.82619,-1.01996,0.0164251
8.82508,-1.01699,0.0179844
8.82398,-1.01403,0.0195408
8.78127,-0.899274,0.079916
8.78019,-0.896348,0.0814514
8.7791,-0.893425,0.0829878
8.77801,-0.890506,0.084527
8.77693,-0.887584,0.0860605
8.77584,-0.884665,0.0875988
8.77475,-0.881749,0.0891361
8.77367,-0.878831,0.0906706
8.7113,-0.711235,0.17884
8.71023,-0.708372,0.180344
8.70917,-0.705509,0.181848
8.70811,-0.70265,0.183352
7.28664,3.11705,2.19285
6.72507,0.870398,3.72188
6.7246,0.871828,3.72253
6.25731,-1.10266,5.01539
6.25697,-1.10152,5.01583
6.25663,-1.10039,5.01627
6.16843,-0.80699,5.12993
6.1681,-0.805917,5.13034
6.16037,-0.780206,5.1403
6.16005,-0.779136,5.14072
6.15396,-0.758873,5.14857
6.15364,-0.757809,5.14898
6.29859,2.14132,4.30035
6.2982,2.14247,4.30088
6.29781,2.14362,4.3014
6.19157,2.46023,4.44551
6.19121,2.46131,4.446
6.19084,2.4624,4.4465
6.19048,2.46349,4.44699
6.18683,2.47434,4.45193
6.18647,2.47542,4.45243
6.18611,2.47651,4.45292
6.18574,2.47759,4.45341
6.18538,2.47867,4.45391
6.18502,2.47976,4.4544
6.18465,2.48084,4.45489
6.18429,2.48192,4.45539
6.18393,2.48301,4.45588
6.18356,2.48409,4.45637
6.1832,2.48517,4.45686
6.18284,2.48625,4.45736
6.18247,2.48733,4.45785
6.18211,2.48842,4.45834
10.0324,-4.21155,-1.71345
10.0309,-4.20742,-1.71127
10.0293,-4.20329,-1.70909
8.71259,-0.673283,0.156492
8.71152,-0.670423,0.158008
8.71045,-0.66756,0.159518
8.70938,-0.664698,0.161029
8.70832,-0.661836,0.162539
8.70725,-0.658979,0.164053
8.70618,-0.656124,0.165565
7.28821,3.14527,2.17457
6.72629,0.890018,3.70814
6.72581,0.891447,3.70879
6.25803,-1.08732,5.0053
6.25768,-1.08619,5.00574
6.16762,-0.787074,5.12204
6.1673,-0.786002,5.12246
6.16697,-0.784929,5.12287
6.16665,-0.783855,5.12329
6.16633,-0.782783,5.12371
6.166,-0.781709,5.12413
6.16568,-0.780634,5.12454
6.16536,-0.779562,5.12496
6.16116,-0.765637,5.13037
6.16084,-0.764567,5.13079
6.16052,-0.763497,5.13121
6.15313,-0.738955,5.14075
6.15281,-0.737891,5.14116
6.2968,2.16749,4.29192
6.29641,2.16864,4.29245
6.29603,2.16979,4.29297
6.19185,2.47965,4.43457
6.19149,2.48074,4.43507
6.19112,2.48182,4.43556
10.0456,-4.19679,-1.7569
8.71067,-0.626559,0.138597
8.7096,-0.623701,0.140117
8.70853,-0.620839,0.141634
8.70746,-0.617982,0.143152
8.7064,-0.615122,0.144669
8.70533,-0.612267,0.146186
8.70426,-0.609413,0.147705
7.28979,3.17363,2.15619
6.72799,0.908303,3.69367
6.72751,0.909735,3.69432
6.72702,0.911162,3.69498
6.26698,-1.09923,4.98449
6.26663,-1.09809,4.98494
6.26629,-1.09695,4.98538
6.26595,-1.09581,4.98583
6.25908,-1.07305,4.99471
6.25874,-1.07191,4.99515
6.2584,-1.07077,4.9956
6.16487,-0.760645,5.11663
6.16454,-0.759571,5.11705
6.16422,-0.7585,5.11747
6.1639,-0.757426,5.11789
6.16357,-0.756354,5.11831
6.16325,-0.755282,5.11873
6.16293,-0.75421,5.11914
6.1626,-0.753139,5.11956
6.16228,-0.752068,5.11998
6.16196,-0.750997,5.1204
6.16163,-0.749926,5.12082
6.16131,-0.748856,5.12123
6.1523,-0.718962,5.1329
6.15197,-0.717896,5.13332
6.15165,-0.716833,5.13373
6.29501,2.19375,4.28346
6.29462,2.1949,4.28398
6.29423,2.19605,4.28451
6.29385,2.1972,4.28504
6.29346,2.19835,4.28557
6.29307,2.1995,4.28609
6.29269,2.20064,4.28662
6.2923,2.20179,4.28715
6.29191,2.20294,4.28768
6.29153,2.20409,4.2882
6.29114,2.20524,4.28873
6.29075,2.20639,4.28925
6.29037,2.20753,4.28978
6.28998,2.20868,4.29031
6.28921,2.21098,4.29136
6.2559,2.30985,4.33673
6.25552,2.31098,4.33724
6.25514,2.3121,4.33776
6.25476,2.31323,4.33828
6.25439,2.31435,4.33879
6.25401,2.31548,4.33931
6.25363,2.31661,4.33982
6.25325,2.31773,4.34034
6.25287,2.31886,4.34086
6.25249,2.31998,4.34137
6.19764,2.48282,4.41609
6.19728,2.48391,4.41659
6.19691,2.485,4.41709
6.19654,2.48609,4.41759
6.19617,2.48718,4.41809
6.19581,2.48827,4.41859
6.19544,2.48936,4.41909
6.19507,2.49045,4.41959
6.1947,2.49154,4.42009
6.19434,2.49263,4.42059
6.19397,2.49372,4.42109
6.1936,2.49481,4.42159
6.19324,2.4959,4.42209
6.19287,2.49698,4.42259
6.1925,2.49807,4.42309
6.19214,2.49916,4.42359
6.19177,2.50025,4.42408
6.1914,2.50134,4.42458
10.0588,-4.18193,-1.80069
8.70875,-0.579657,0.120634
8.70768,-0.576797,0.122157
8.70661,-0.57394,0.123683
8.70554,-0.571083,0.125206
8.70446,-0.568228,0.12673
8.7034,-0.565372,0.128251
8.70233,-0.562516,0.129772
8.70126,-0.559665,0.131295
8.68952,-0.528343,0.148002
8.68845,-0.525502,0.149518
8.68739,-0.522662,0.151034
8.68632,-0.519817,0.152545
8.68526,-0.516979,0.15406
8.6842,-0.51414,0.155573
8.68313,-0.511305,0.157088
8.68207,-0.508468,0.1586
8.68101,-0.505634,0.160114
8.67994,-0.5028,0.161627
8.67888,-0.499967,0.163139
7.29137,3.20215,2.13771
6.73018,0.92525,3.67846
6.7297,0.926679,3.67913
6.72921,0.928112,3.67979
6.72873,0.929545,3.68045
6.26806,-1.08491,4.9738
6.26772,-1.08377,4.97425
6.26737,-1.08263,4.9747
6.26565,-1.07692,4.97693
6.26531,-1.07578,4.97738
6.26496,-1.07464,4.97783
6.26462,-1.0735,4.97827
6.26427,-1.07236,4.97872
6.26015,-1.0587,4.98407
6.2598,-1.05756,4.98452
6.25946,-1.05642,4.98496
6.15114,-0.697826,5.12544
6.15081,-0.696761,5.12585
6.15049,-0.695697,5.12627
6.15017,-0.694634,5.12669
6.28895,2.23273,4.28078
6.28818,2.23502,4.28184
6.28779,2.23616,4.28237
6.2874,2.23731,4.2829
6.28701,2.23846,4.28342
6.28663,2.2396,4.28395
6.28624,2.24075,4.28448
6.28586,2.24189,4.28501
6.28547,2.24304,4.28553
6.28508,2.24418,4.28606
6.2847,2.24533,4.28659
6.2793,2.26132,4.29396
6.27891,2.26246,4.29448
6.27853,2.2636,4.29501
6.27814,2.26475,4.29553
6.27776,2.26588,4.29606
6.27737,2.26702,4.29658
6.25672,2.32823,4.32478
6.25634,2.32936,4.3253
6.25596,2.33049,4.32582
6.25558,2.33161,4.32634
6.2514,2.34399,4.33204
6.25102,2.34511,4.33256
6.25064,2.34624,4.33308
6.202,2.49038,4.39948
6.20163,2.49148,4.39998
6.20126,2.49257,4.40049
6.20089,2.49367,4.40099
6.20052,2.49476,4.40149
6.20015,2.49585,4.402
6.19978,2.49695,4.4025
6.19942,2.49804,4.403
6.19905,2.49913,4.40351
6.19868,2.50022,4.40401
6.19831,2.50131,4.40451
6.19794,2.50241,4.40502
6.19757,2.5035,4.40552
6.1972,2.50459,4.40602
10.0722,-4.16694,-1.84483
8.70574,-0.529711,0.10413
8.70467,-0.526855,0.105659
8.7036,-0.524,0.107188
8.70253,-0.521148,0.108719
8.70146,-0.518293,0.110247
8.70038,-0.515443,0.111775
8.69931,-0.512591,0.113302
8.69824,-0.509741,0.114828
8.69717,-0.506893,0.116356
8.6961,-0.504042,0.117879
8.68329,-0.469937,0.136155
8.68222,-0.467102,0.137675
8.68116,-0.464266,0.139194
8.68009,-0.461432,0.140713
8.67903,-0.458599,0.142232
8.67797,-0.455764,0.143746
8.6769,-0.452933,0.145264
7.29362,3.22904,2.1182
7.29296,3.2308,2.11914
6.73627,0.930799,3.65787
6.73578,0.932236,3.65853
6.7353,0.933673,3.6592
6.73481,0.935108,3.65986
6.73433,0.936543,3.66053
6.73384,0.93798,3.66119
6.73336,0.939418,3.66185
6.73287,0.940851,3.66252
6.73238,0.942286,3.66318
6.7319,0.943721,3.66385
6.73141,0.945153,3.66451
6.73093,0.946589,3.66517
6.26881,-1.06938,4.96351
6.26846,-1.06824,4.96396
6.26397,-1.05339,4.9698
6.26363,-1.05225,4.97025
6.26328,-1.05112,4.97069
6.26294,-1.04998,4.97114
6.26259,-1.04884,4.97159
6.26225,-1.0477,4.97204
6.2619,-1.04656,4.97249
6.26156,-1.04542,4.97293
6.26121,-1.04428,4.97338
6.26087,-1.04314,4.97383
6.26053,-1.042,4.97428
6.14965,-0.675551,5.11837
6.14933,-0.674486,5.11879
6.14901,-0.673424,5.1192
6.14868,-0.672359,5.11962
6.14836,-0.671296,5.12004
6.14804,-0.670232,5.12046
6.14772,-0.669168,5.12088
6.1474,-0.668106,5.12129
6.14708,-0.667043,5.12171
6.14676,-0.66598,5.12213
6.14643,-0.664918,5.12255
6.14611,-0.663857,5.12296
6.14579,-0.662796,5.12338
6.14547,-0.661735,5.1238
6.28366,2.26946,4.27705
6.28327,2.2706,4.27758
6.28288,2.27175,4.27811
6.2825,2.27289,4.27863
6.28211,2.27403,4.27916
6.28172,2.27518,4.27969
6.28134,2.27632,4.28022
6.28095,2.27746,4.28075
6.28056,2.2786,4.28128
6.28018,2.27974,4.28181
6.27979,2.28089,4.28233
6.27941,2.28203,4.28286
6.27902,2.28317,4.28339
6.27632,2.29115,4.28708
6.27594,2.29229,4.28761
6.26595,2.32183,4.30127
6.26557,2.32296,4.3018
6.26518,2.3241,4.30232
6.2648,2.32523,4.30284
6.26442,2.32636,4.30337
6.26403,2.32749,4.30389
6.26365,2.32862,4.30441
6.26327,2.32976,4.30494
6.26289,2.33089,4.30546
6.2625,2.33202,4.30598
6.26212,2.33315,4.30651
6.25754,2.3467,4.31278
6.25716,2.34783,4.3133
6.25678,2.34896,4.31382
6.25639,2.35009,4.31434
6.24955,2.37034,4.32371
6.24917,2.37146,4.32423
6.24879,2.37259,4.32475
6.24348,2.38828,4.33201
6.2431,2.3894,4.33253
6.24272,2.39052,4.33304
6.24235,2.39164,4.33356
6.24197,2.39276,4.33408
6.24159,2.39388,4.3346
6.24121,2.395,4.33511
6.24083,2.39611,4.33563
6.24046,2.39723,4.33615
6.2101,2.48702,4.37768
6.20972,2.48812,4.37819
6.20935,2.48922,4.37869
6.20898,2.49032,4.3792
6.20861,2.49142,4.37971
6.20824,2.49251,4.38022
6.20787,2.49361,4.38073
6.2075,2.49471,4.38123
6.20713,2.49581,4.38174
6.20675,2.49691,4.38225
6.20638,2.498,4.38276
6.20601,2.4991,4.38327
6.20564,2.5002,4.38377
6.20527,2.50129,4.38428
6.2049,2.50239,4.38479
6.20453,2.50348,4.38529
6.20416,2.50458,4.3858
6.20379,2.50568,4.38631
6.20342,2.50677,4.38681
6.20305,2.50787,4.38732
6.20268,2.50896,4.38783
6.20231,2.51006,4.38833
6.20194,2.51115,4.38884
6.20157,2.51225,4.38935
10.0873,-4.15602,-1.89157
10.0857,-4.15184,-1.88932
8.68131,-0.422711,0.118179
8.68025,-0.419874,0.119702
8.67918,-0.417044,0.12123
8.67811,-0.414211,0.122754
7.29522,3.25784,2.09953
6.73801,0.949352,3.64314
6.73752,0.950792,3.64381
6.73704,0.952229,3.64448
6.26956,-1.05378,4.95317
6.26921,-1.05263,4.95362
6.14494,-0.642568,5.11547
6.14462,-0.641507,5.11589
6.1443,-0.640446,5.1163
6.14397,-0.639386,5.11672
6.27488,2.31651,4.27807
6.27449,2.31765,4.2786
6.26603,2.34264,4.29021
6.26564,2.34377,4.29073
6.26104,2.35736,4.29704
6.26066,2.35849,4.29757
6.26028,2.35962,4.29809
6.25989,2.36075,4.29862
6.25951,2.36187,4.29914
6.25913,2.363,4.29967
6.25875,2.36413,4.30019
6.25836,2.36526,4.30071
6.25798,2.36639,4.30124
6.2576,2.36752,4.30176
6.25722,2.36865,4.30229
6.24769,2.39678,4.31535
6.24731,2.3979,4.31587
6.24693,2.39902,4.31639
6.24655,2.40014,4.31691
6.24617,2.40127,4.31743
6.24579,2.40239,4.31796
6.24541,2.40351,4.31848
6.24503,2.40463,4.319
6.24465,2.40575,4.31952
6.24427,2.40687,4.32004
6.24389,2.40799,4.32056
6.24351,2.40911,4.32108
6.24313,2.41023,4.3216
6.23934,2.42142,4.32679
6.23896,2.42253,4.32731
6.23858,2.42365,4.32783
6.23179,2.44371,4.33715
6.23141,2.44483,4.33767
6.23103,2.44594,4.33818
6.23066,2.44705,4.3387
6.23028,2.44816,4.33922
6.2299,2.44928,4.33973
6.22953,2.45039,4.34025
6.22915,2.4515,4.34076
6.21378,2.49687,4.36183
6.21341,2.49797,4.36235
6.21304,2.49907,4.36286
6.21266,2.50017,4.36337
6.21229,2.50127,4.36388
6.21192,2.50237,4.36439
6.21154,2.50347,4.3649
6.21117,2.50457,4.36541
6.2108,2.50567,4.36592
6.21042,2.50677,4.36643
6.21005,2.50788,4.36695
6.20968,2.50898,4.36746
8.68254,-0.383798,0.0955343
8.68147,-0.380964,0.0970688
8.6804,-0.378133,0.0986032
8.67933,-0.375297,0.100132
8.66439,-0.335739,0.12153
8.66333,-0.332919,0.123053
8.66227,-0.3301,0.124576
8.6612,-0.327287,0.126101
8.66014,-0.324471,0.127626
8.65908,-0.321653,0.129145
8.65801,-0.318842,0.130671
8.65695,-0.316029,0.132193
8.65589,-0.313215,0.133713
8.65483,-0.310405,0.135234
8.65377,-0.307592,0.136752
8.65271,-0.304784,0.138272
8.64847,-0.293555,0.144346
8.64741,-0.290747,0.14586
8.64635,-0.287946,0.147379
8.64529,-0.285139,0.148891
8.64423,-0.282339,0.15041
8.64318,-0.279536,0.151923
8.64212,-0.276738,0.15344
8.64106,-0.273937,0.154953
8.64001,-0.271138,0.156467
8.63895,-0.268342,0.157981
8.63789,-0.265545,0.159493
8.63684,-0.262748,0.161004
8.63578,-0.259954,0.162519
8.61685,-0.2098,0.189645
8.6158,-0.20702,0.191145
8.61475,-0.204245,0.192649
7.29816,3.28327,2.07886
7.2975,3.28503,2.07981
7.29683,3.2868,2.08076
6.73927,0.969443,3.62901
6.73878,0.970883,3.62968
6.27031,-1.0381,4.94278
6.26996,-1.03695,4.94323
6.14344,-0.620142,5.10836
6.14312,-0.61908,5.10878
6.1428,-0.61802,5.1092
6.14247,-0.61696,5.10962
6.14215,-0.615899,5.11004
6.27343,2.34196,4.26903
6.26611,2.36354,4.2791
6.26572,2.36467,4.27962
6.23746,2.44792,4.31844
6.23709,2.44904,4.31897
6.23671,2.45016,4.31949
6.23633,2.45127,4.32001
6.23368,2.45908,4.32365
6.2333,2.46019,4.32417
6.23292,2.4613,4.32469
6.23255,2.46242,4.3252
6.23217,2.46353,4.32572
6.23179,2.46465,4.32624
6.23141,2.46576,4.32676
6.22802,2.47576,4.33143
6.22764,2.47687,4.33194
6.22726,2.47798,4.33246
6.21412,2.5167,4.35052
6.21375,2.51781,4.35103
6.21337,2.51891,4.35155
8.68377,-0.344695,0.0727797
8.68269,-0.341861,0.0743198
8.67198,-0.313563,0.0896988
8.67091,-0.310739,0.0912352
8.65705,-0.2741,0.111143
8.65598,-0.271287,0.112671
8.65492,-0.268477,0.114199
8.64007,-0.229217,0.135529
8.63901,-0.226421,0.13705
8.62527,-0.190142,0.156768
8.62422,-0.187356,0.158278
8.62317,-0.18457,0.15979
8.61896,-0.173444,0.165834
8.61791,-0.170668,0.167347
8.61685,-0.16789,0.168857
7.30379,3.30179,2.05423
7.30312,3.30356,2.05519
7.30245,3.30532,2.05615
7.30179,3.30708,2.05711
7.30112,3.30885,2.05807
7.30045,3.31061,2.05903
7.29978,3.31237,2.05998
6.74054,0.989634,3.61481
6.74005,0.991075,3.61548
6.27107,-1.02234,4.93233
6.27072,-1.02119,4.93279
6.14161,-0.596577,5.10165
6.14129,-0.595515,5.10207
6.14097,-0.594455,5.1025
6.14065,-0.593394,5.10292
6.27237,2.36636,4.25942
6.27198,2.3675,4.25996
6.26657,2.3834,4.2674
6.26618,2.38453,4.26793
6.2658,2.38567,4.26846
6.2352,2.47564,4.31059
6.23482,2.47675,4.31111
6.23444,2.47787,4.31164
6.23407,2.47898,4.31216
6.23369,2.4801,4.31268
6.23331,2.48121,4.3132
6.22612,2.50234,4.32309
6.21446,2.53664,4.33915
6.21408,2.53774,4.33967
6.21371,2.53884,4.34019
8.68716,-0.311075,0.0468149
8.68608,-0.30824,0.0483665
8.685,-0.305401,0.0499125
8.68393,-0.302566,0.0514612
8.68285,-0.299733,0.0530109
8.68178,-0.2969,0.0545578
8.6807,-0.294065,0.0561018
8.67963,-0.291234,0.0576496
8.67855,-0.288404,0.0591955
8.64331,-0.195502,0.109913
8.64225,-0.192704,0.111443
8.64119,-0.189903,0.112969
8.63482,-0.173131,0.122126
8.63376,-0.170341,0.123653
8.6327,-0.167549,0.125176
8.63165,-0.164758,0.126698
8.62108,-0.136902,0.141903
8.62002,-0.134125,0.143424
8.61897,-0.131346,0.144942
7.30677,3.3275,2.0333
7.3061,3.32927,2.03427
7.30543,3.33104,2.03523
6.74182,1.00993,3.60053
6.74132,1.01137,3.60121
6.27217,-1.00765,4.92138
6.27182,-1.00651,4.92184
6.27147,-1.00536,4.9223
6.1401,-0.573994,5.0945
6.13978,-0.572933,5.09492
6.13946,-0.571875,5.09535
6.13913,-0.570814,5.09577
6.13076,-0.543334,5.10674
6.13044,-0.542283,5.10716
6.13012,-0.541227,5.10758
6.1298,-0.540174,5.108
6.12948,-0.539122,5.10842
6.12916,-0.538069,5.10884
6.27091,2.39199,4.25031
6.27052,2.39312,4.25085
6.26665,2.40448,4.25619
6.26626,2.40562,4.25672
6.22498,2.52679,4.31369
6.2246,2.52789,4.31421
6.21442,2.55776,4.32825
6.21405,2.55886,4.32877
8.64551,-0.158797,0.0856915
8.64444,-0.155995,0.0872269
8.64338,-0.153195,0.0887623
8.64231,-0.150398,0.0902996
8.64125,-0.147599,0.0918331
8.62321,-0.100172,0.117849
8.62215,-0.0973892,0.119374
7.3091,3.35513,2.01323
7.30843,3.3569,2.01419
6.74359,1.02887,3.58551
6.7431,1.03032,3.58619
6.7426,1.03176,3.58687
6.27329,-0.992895,4.91037
6.27294,-0.991746,4.91083
6.27259,-0.990596,4.91129
6.13859,-0.551332,5.08732
6.13826,-0.550275,5.08775
6.13794,-0.549214,5.08817
6.13762,-0.548156,5.0886
6.13439,-0.537575,5.09284
6.13407,-0.536516,5.09326
6.13374,-0.53546,5.09368
6.13342,-0.534402,5.09411
6.1331,-0.533346,5.09453
6.13278,-0.53229,5.09495
6.13245,-0.531235,5.09538
6.13213,-0.530178,5.0958
6.13181,-0.529121,5.09622
6.13149,-0.528069,5.09665
6.13117,-0.527014,5.09707
6.13084,-0.525958,5.09749
6.12859,-0.51858,5.10045
6.12827,-0.517528,5.10087
6.12795,-0.516473,5.10129
6.12763,-0.515422,5.10171
6.26944,2.41771,4.24117
6.26906,2.41885,4.24171
6.26867,2.41998,4.24225
6.26828,2.42112,4.24278
6.26789,2.42226,4.24332
6.26751,2.42339,4.24385
6.26712,2.42453,4.24439
6.26673,2.42566,4.24493
6.26634,2.4268,4.24546
6.22345,2.55243,4.30477
6.21439,2.57898,4.31731
6.21401,2.58008,4.31783
8.62642,-0.0660286,0.0921316
8.62535,-0.0632486,0.0936689
8.60104,0.000530243,0.128818
8.59998,0.00329208,0.130341
8.59893,0.00605392,0.131861
8.59788,0.00881386,0.133383
8.59683,0.0115728,0.134905
8.59578,0.0143318,0.136423
8.59472,0.0170889,0.137944
8.59367,0.019846,0.139463
8.59262,0.0226002,0.140984
8.59157,0.0253544,0.142502
8.59052,0.0281105,0.144018
7.31076,3.38468,1.99401
6.74438,1.05081,3.57177
6.27476,-0.979214,4.89885
6.27441,-0.97806,4.89931
6.27406,-0.976912,4.89977
6.27371,-0.97576,4.90024
6.13706,-0.528594,5.08012
6.13674,-0.527534,5.08055
6.13642,-0.526475,5.08097
6.13609,-0.525415,5.0814
6.13577,-0.524358,5.08182
6.13545,-0.523299,5.08225
6.13512,-0.52224,5.08267
6.1348,-0.521183,5.0831
6.13448,-0.520125,5.08353
6.12706,-0.495853,5.09329
6.12674,-0.494801,5.09371
6.12642,-0.493749,5.09414
6.12032,-0.473789,5.10216
6.12,-0.472743,5.10259
6.11968,-0.471694,5.10301
6.11936,-0.470645,5.10343
6.2223,2.57706,4.2953
6.22192,2.57817,4.29583
6.21435,2.60029,4.30631
6.21398,2.60139,4.30683
8.62964,-0.0316982,0.0662727
8.62857,-0.0289164,0.0678196
8.62751,-0.0261288,0.0693588
8.62644,-0.023344,0.0709
8.61582,0.00444603,0.0862913
8.61476,0.00721645,0.0878315
8.6137,0.00999069,0.089366
8.61264,0.012764,0.0909004
8.61158,0.0155344,0.0924368
8.61052,0.0183058,0.0939693
8.60946,0.0210762,0.0955019
8.60841,0.0238447,0.0970345
8.60735,0.0266123,0.0985689
8.59468,0.0597544,0.116921
8.59363,0.0625095,0.118449
8.59257,0.0652647,0.119973
8.59152,0.0680189,0.1215
8.59047,0.0707712,0.123026
8.58942,0.0735273,0.124546
7.31244,3.41438,1.9747
6.74617,1.06997,3.55659
6.74568,1.07141,3.55728
6.74518,1.07286,3.55797
6.27624,-0.965457,4.88726
6.27589,-0.964304,4.88772
6.27553,-0.963153,4.88819
6.27518,-0.962,4.88866
6.12584,-0.474101,5.08568
6.12552,-0.473047,5.08611
6.1252,-0.471996,5.08653
6.12488,-0.470943,5.08696
6.12102,-0.458336,5.09205
6.1207,-0.457287,5.09247
6.12037,-0.456238,5.0929
6.11877,-0.450994,5.09501
6.11845,-0.449947,5.09544
6.22076,2.6029,4.28632
6.2147,2.62059,4.29474
6.21432,2.62169,4.29527
6.21394,2.6228,4.29579
8.63074,0.00839615,0.043375
8.62967,0.0111837,0.0449228
8.6286,0.0139675,0.0464754
8.62754,0.0167542,0.0480213
8.62647,0.0195408,0.0495682
8.62541,0.0223207,0.0511189
8.62434,0.0251007,0.0526686
8.62327,0.0278816,0.0542154
8.62221,0.0306616,0.0557623
8.59358,0.105371,0.0973349
8.59252,0.108125,0.0988684
8.59147,0.110876,0.100402
8.59042,0.113631,0.101933
8.58936,0.116385,0.10346
8.58831,0.119136,0.104992
8.58725,0.121886,0.106522
8.5862,0.124632,0.108054
8.58515,0.127381,0.109582
6.74698,1.09212,3.54272
6.27808,-0.952782,4.87514
6.27773,-0.951627,4.87561
6.27737,-0.950473,4.87608
6.27702,-0.949318,4.87655
6.27667,-0.948164,4.87701
6.1243,-0.451216,5.07847
6.12398,-0.450164,5.0789
6.12365,-0.449111,5.07932
6.12333,-0.44806,5.07975
6.12204,-0.443855,5.08146
6.12172,-0.442805,5.08188
6.1214,-0.441755,5.08231
6.12108,-0.440706,5.08273
6.11786,-0.430215,5.08699
6.11754,-0.429167,5.08741
6.11722,-0.428121,5.08784
6.2196,2.62771,4.27678
6.21922,2.62882,4.27731
6.21504,2.64098,4.28312
6.21466,2.64209,4.28365
6.21428,2.64319,4.28417
8.5893,0.15944,0.0822792
8.58825,0.162189,0.0838184
8.58719,0.164936,0.0853567
8.58613,0.167683,0.086894
8.58508,0.170434,0.0884275
8.55881,0.238823,0.126669
8.55776,0.241545,0.128195
8.55671,0.244271,0.129714
8.55567,0.246991,0.131238
8.55462,0.249714,0.132759
8.55358,0.252434,0.13428
8.55253,0.255156,0.135799
7.31513,3.47603,1.93675
6.74828,1.11292,3.52808
6.74779,1.11437,3.52877
6.27958,-0.938881,4.86343
6.27922,-0.937724,4.8639
6.27887,-0.936569,4.86437
6.27851,-0.935412,4.86484
6.12275,-0.428251,5.07124
6.12243,-0.4272,5.07167
6.1221,-0.426148,5.07209
6.11662,-0.408307,5.07935
6.1163,-0.40726,5.07978
6.11598,-0.406212,5.08021
6.21805,2.65373,4.26773
6.21767,2.65484,4.26826
6.21729,2.65595,4.26879
6.21691,2.65705,4.26932
6.21615,2.65926,4.27038
6.21539,2.66147,4.27144
6.21501,2.66258,4.27197
6.21463,2.66368,4.2725
8.58925,0.202693,0.0609989
8.58819,0.205441,0.0625458
8.58713,0.208187,0.0640917
8.58607,0.210935,0.0656338
8.58501,0.21368,0.0671787
8.56814,0.257503,0.0917988
8.56708,0.260235,0.0933332
8.56603,0.262964,0.0948677
8.56498,0.265692,0.0964031
8.55658,0.287497,0.108652
8.55553,0.290219,0.11018
8.55449,0.292941,0.111708
6.7496,1.13384,3.51337
6.7491,1.13529,3.51407
6.28073,-0.923748,4.85212
6.28037,-0.922589,4.8526
6.28002,-0.921432,4.85307
6.11538,-0.386319,5.07169
6.11506,-0.385271,5.07212
6.11474,-0.384224,5.07255
6.11442,-0.383176,5.07298
6.1141,-0.382131,5.07341
6.11377,-0.381083,5.07383
6.11345,-0.380039,5.07426
6.11313,-0.378993,5.07469
6.10895,-0.365414,5.08024
6.10863,-0.364369,5.08066
6.10831,-0.363326,5.08109
6.10799,-0.362283,5.08151
6.10767,-0.361241,5.08194
6.10735,-0.360199,5.08237
6.10703,-0.359157,5.08279
6.10671,-0.358115,5.08322
6.10639,-0.357073,5.08364
6.21574,2.68205,4.25971
6.21497,2.68426,4.26078
8.58919,0.246142,0.0396233
8.58813,0.248892,0.0411749
8.58707,0.251637,0.0427284
8.58601,0.254381,0.044282
8.58495,0.257132,0.0458269
8.58389,0.259874,0.0473785
8.57965,0.270844,0.0535727
8.57859,0.273582,0.0551224
8.57754,0.276325,0.0566635
8.57648,0.279063,0.0582113
8.57542,0.281798,0.0597591
8.57436,0.284538,0.0613012
8.55855,0.325478,0.0844202
8.5575,0.3282,0.0859566
8.55645,0.330924,0.087492
8.5554,0.33364,0.0890312
8.54491,0.360802,0.104359
8.54387,0.363508,0.105892
8.54282,0.366221,0.107419
8.54177,0.368927,0.108952
8.54073,0.371637,0.110479
8.53968,0.374345,0.112007
8.53864,0.377048,0.113538
8.53759,0.379756,0.115064
8.53655,0.382457,0.116594
6.75092,1.15486,3.49858
6.75042,1.15631,3.49929
6.28153,-0.907377,4.84124
6.28117,-0.906217,4.84171
6.11253,-0.359015,5.06615
6.1122,-0.357969,5.06658
6.11188,-0.356925,5.06701
6.11156,-0.355878,5.06744
6.11124,-0.354831,5.06787
6.11091,-0.353787,5.0683
6.11059,-0.352742,5.06873
6.11027,-0.351698,5.06915
6.10995,-0.350655,5.06958
6.10963,-0.349609,5.07001
6.10931,-0.348564,5.07044
6.10898,-0.34752,5.07087
6.10577,-0.337093,5.07514
6.10545,-0.336052,5.07557
6.10513,-0.335011,5.076
6.10481,-0.333969,5.07643
6.10449,-0.332929,5.07685
